ply
format ascii 1.0
comment Created by Open3D
element vertex 2613
property float x
property float y
property float z
property uchar red
property uchar green
property uchar blue
end_header
17 46 60 255 87 0
17 46 61 255 87 0
17 47 61 255 88 0
16 47 62 255 79 0
17 47 62 255 88 0
18 45 60 255 95 0
18 46 60 255 95 0
18 46 61 255 95 0
18 47 61 255 96 0
19 46 60 255 103 0
19 47 60 255 104 0
19 47 61 255 104 0
18 47 62 255 96 0
20 42 56 255 110 0
20 43 56 255 110 0
20 43 57 255 110 0
21 42 56 255 118 0
21 43 56 255 119 0
21 43 57 255 119 0
22 42 56 255 126 0
22 43 56 255 127 0
22 43 57 255 127 0
23 43 56 255 135 0
20 44 57 255 111 0
21 44 57 255 119 0
20 44 58 255 111 0
20 45 58 255 111 0
20 45 59 255 111 0
21 44 58 255 119 0
21 45 58 255 119 0
21 45 59 255 119 0
21 46 56 255 120 0
21 46 57 255 120 0
21 47 56 255 120 0
21 47 57 255 120 0
20 46 59 255 111 0
20 47 58 255 112 0
20 47 59 255 112 0
21 46 58 255 120 0
21 46 59 255 120 0
21 47 58 255 120 0
21 47 59 255 121 0
22 44 56 255 127 0
22 44 57 255 127 0
22 45 56 255 128 0
22 45 57 255 128 0
23 44 56 255 135 0
23 44 57 255 135 0
23 45 56 255 136 0
22 44 58 255 127 0
22 45 58 255 128 0
22 46 56 255 128 0
22 46 57 255 128 0
22 47 56 255 129 0
22 46 58 255 128 0
20 46 60 255 111 0
20 47 60 255 112 0
20 47 61 255 112 0
21 46 60 255 120 0
24 37 49 255 140 0
25 36 48 255 149 0
25 36 49 255 150 0
25 37 48 255 150 0
25 37 49 255 150 0
24 37 50 255 141 0
25 37 50 255 150 0
24 38 48 255 141 0
24 38 49 255 141 0
24 39 48 255 141 0
24 39 49 255 141 0
25 38 48 255 150 0
24 38 50 255 141 0
24 38 51 255 141 0
24 39 50 255 142 0
24 39 51 255 142 0
25 38 50 255 151 0
25 38 51 255 151 0
25 39 51 255 151 0
26 36 48 255 160 0
26 36 49 255 160 0
26 37 48 255 160 0
26 37 49 255 160 0
27 36 48 255 172 0
27 37 48 255 172 0
27 37 49 255 172 0
26 37 50 255 161 0
27 38 49 255 173 0
26 38 50 255 161 0
26 39 50 255 161 0
26 39 51 255 161 0
27 38 50 255 173 0
27 39 50 255 173 0
27 39 51 255 173 0
24 39 52 255 142 0
25 39 52 255 151 0
28 36 48 255 185 0
28 37 48 255 186 0
28 37 49 255 186 0
29 36 48 255 201 0
29 37 48 255 202 0
29 37 49 255 202 0
28 38 49 255 187 0
28 39 48 255 187 0
28 39 49 255 187 0
29 38 48 255 203 0
29 38 49 255 203 0
29 39 48 255 204 0
29 39 49 255 204 0
28 38 50 255 187 0
28 39 50 255 187 0
28 39 51 255 188 0
29 38 50 255 203 0
30 37 48 255 218 0
30 38 48 255 219 0
24 40 48 255 142 0
24 41 48 255 142 0
25 41 48 255 152 0
24 42 48 255 143 0
24 42 49 255 143 0
24 43 49 255 143 0
25 42 48 255 152 0
25 42 49 255 152 0
25 43 49 255 152 0
24 43 50 255 143 0
25 43 50 255 153 0
25 43 51 255 153 0
26 41 48 255 162 0
27 40 49 255 174 0
27 41 48 255 174 0
27 41 49 255 175 0
26 40 51 255 161 0
26 41 50 255 162 0
26 41 51 255 162 0
27 40 50 255 174 0
27 40 51 255 174 0
27 41 50 255 175 0
27 41 51 255 175 0
26 42 48 255 162 0
26 42 49 255 162 0
26 43 49 255 163 0
27 42 48 255 175 0
27 42 49 255 175 0
26 42 50 255 163 0
26 42 51 255 163 0
26 43 50 255 163 0
26 43 51 255 163 0
24 40 52 255 142 0
24 40 53 255 142 0
24 41 53 255 142 0
25 40 52 255 151 0
25 40 53 255 151 0
25 41 53 255 152 0
24 41 54 255 143 0
25 41 54 255 152 0
24 43 53 255 143 0
25 42 52 255 152 0
25 42 53 255 152 0
25 43 52 255 153 0
25 43 53 255 153 0
24 42 54 255 143 0
24 42 55 255 143 0
24 43 54 255 143 0
24 43 55 255 143 0
25 42 54 255 152 0
25 42 55 255 152 0
25 43 54 255 153 0
26 40 52 255 162 0
26 41 52 255 162 0
26 41 53 255 162 0
27 40 52 255 174 0
27 41 52 255 175 0
26 42 52 255 163 0
26 42 53 255 163 0
24 44 50 255 144 0
24 44 51 255 144 0
24 45 51 255 144 0
25 44 50 255 153 0
25 44 51 255 153 0
24 44 52 255 144 0
24 44 53 255 144 0
24 45 52 255 144 0
24 45 53 255 144 0
25 44 52 255 153 0
24 44 54 255 144 0
24 44 55 255 144 0
28 40 48 255 188 0
28 40 49 255 188 0
28 41 48 255 189 0
28 41 49 255 189 0
29 40 48 255 205 0
28 40 50 255 188 0
28 40 51 255 189 0
24 43 56 255 143 0
31 48 32 255 240 0
19 48 55 255 104 0
20 48 55 255 112 0
21 48 55 255 121 0
16 48 57 255 80 0
16 49 57 255 80 0
17 48 56 255 88 0
17 48 57 255 88 0
17 49 57 255 88 0
16 48 58 255 80 0
16 49 58 255 80 0
17 49 58 255 88 0
16 50 58 255 80 0
16 50 59 255 80 0
16 51 59 255 81 0
17 50 58 255 89 0
17 50 59 255 89 0
17 51 59 255 89 0
18 48 56 255 96 0
18 48 57 255 96 0
18 49 57 255 96 0
19 48 56 255 104 0
19 48 57 255 104 0
19 49 56 255 104 0
19 49 57 255 105 0
18 49 58 255 96 0
19 48 59 255 104 0
19 49 58 255 105 0
19 49 59 255 105 0
18 50 58 255 97 0
18 50 59 255 97 0
18 51 59 255 97 0
19 50 58 255 105 0
19 50 59 255 105 0
16 48 62 255 80 0
16 48 63 255 80 0
16 49 63 255 80 0
17 48 62 255 88 0
17 48 63 255 88 0
17 49 63 255 88 0
16 51 60 255 81 0
17 50 61 255 89 0
17 51 60 255 89 0
17 51 61 255 89 0
16 51 62 255 81 0
16 51 63 255 81 0
17 50 62 255 89 0
17 50 63 255 89 0
17 51 62 255 89 0
17 51 63 255 90 0
18 49 60 255 96 0
18 49 61 255 96 0
19 48 60 255 104 0
19 48 61 255 104 0
19 49 60 255 105 0
19 49 61 255 105 0
18 48 62 255 96 0
18 48 63 255 96 0
18 49 62 255 96 0
18 49 63 255 97 0
19 48 62 255 104 0
18 50 60 255 97 0
18 50 61 255 97 0
18 51 60 255 97 0
19 50 60 255 105 0
18 50 62 255 97 0
18 50 63 255 97 0
16 52 60 255 81 0
16 52 61 255 81 0
16 53 61 255 82 0
17 52 60 255 90 0
17 52 61 255 90 0
16 52 62 255 81 0
16 52 63 255 82 0
16 53 62 255 82 0
16 53 63 255 82 0
17 52 62 255 90 0
20 48 56 255 112 0
20 48 57 255 112 0
20 49 56 255 113 0
20 49 57 255 113 0
21 48 56 255 121 0
20 48 58 255 112 0
20 48 59 255 113 0
20 49 58 255 113 0
20 48 60 255 113 0
39 24 30 118 255 0
39 24 31 118 255 0
39 25 30 118 255 0
39 25 31 118 255 0
39 26 31 117 255 0
45 18 23 0 255 53
45 19 23 0 255 53
47 16 21 0 255 116
47 17 21 0 255 117
46 17 22 0 255 84
46 17 23 0 255 84
47 16 22 0 255 116
47 16 23 0 255 117
47 17 22 0 255 117
47 17 23 0 255 117
47 18 21 0 255 117
47 19 21 0 255 118
46 18 22 0 255 84
46 18 23 0 255 84
46 19 22 0 255 85
46 19 23 0 255 85
47 18 22 0 255 117
47 19 22 0 255 118
47 19 23 0 255 118
45 20 23 0 255 53
46 20 23 0 255 85
47 20 23 0 255 118
43 21 25 8 255 0
42 21 27 38 255 0
43 20 26 8 255 0
43 20 27 8 255 0
43 21 26 8 255 0
43 21 27 8 255 0
42 22 27 38 255 0
42 23 27 37 255 0
43 22 26 7 255 0
43 22 27 7 255 0
43 23 26 7 255 0
43 23 27 7 255 0
40 23 29 92 255 0
41 22 28 66 255 0
41 22 29 66 255 0
41 23 28 65 255 0
41 23 29 65 255 0
40 23 30 92 255 0
40 23 31 92 255 0
41 22 30 65 255 0
41 22 31 65 255 0
41 23 30 65 255 0
41 23 31 65 255 0
42 21 28 38 255 0
42 21 29 38 255 0
43 20 28 8 255 0
43 21 28 8 255 0
43 21 29 8 255 0
42 21 30 38 255 0
43 21 30 7 255 0
42 22 28 38 255 0
42 22 29 38 255 0
42 23 28 37 255 0
43 23 28 7 255 0
42 22 30 37 255 0
42 22 31 37 255 0
42 23 31 37 255 0
43 22 30 7 255 0
43 22 31 7 255 0
43 23 30 7 255 0
43 23 31 7 255 0
44 19 24 0 255 22
44 19 25 0 255 22
45 18 24 0 255 53
45 18 25 0 255 53
45 19 24 0 255 53
45 19 25 0 255 53
44 19 26 0 255 22
44 19 27 0 255 22
45 18 26 0 255 53
45 19 26 0 255 53
45 19 27 0 255 53
46 17 24 0 255 84
46 17 25 0 255 84
47 17 24 0 255 117
47 17 25 0 255 117
46 18 24 0 255 84
46 18 25 0 255 85
47 18 25 0 255 117
47 19 25 0 255 118
46 18 26 0 255 85
46 19 26 0 255 85
46 19 27 0 255 85
47 18 26 0 255 117
47 19 26 0 255 118
44 20 24 0 255 22
44 20 25 0 255 22
44 21 25 0 255 23
45 20 24 0 255 54
45 21 24 0 255 54
45 21 25 0 255 54
44 20 26 0 255 22
44 20 27 0 255 23
44 21 26 0 255 23
45 20 27 0 255 54
45 21 27 0 255 54
44 22 25 0 255 23
45 22 25 0 255 54
44 22 26 0 255 23
44 23 26 0 255 23
44 23 27 0 255 24
45 22 26 0 255 54
45 22 27 0 255 55
45 23 27 0 255 55
46 20 24 0 255 85
46 21 24 0 255 85
46 21 25 0 255 86
47 20 24 0 255 118
47 20 25 0 255 118
47 21 24 0 255 119
47 21 25 0 255 119
46 20 26 0 255 85
46 20 27 0 255 85
46 21 26 0 255 86
46 21 27 0 255 86
47 20 26 0 255 118
47 21 26 0 255 119
46 22 25 0 255 86
46 22 26 0 255 86
46 22 27 0 255 86
44 20 28 0 255 23
44 21 28 0 255 23
44 21 29 0 255 23
45 20 28 0 255 54
45 21 28 0 255 54
45 21 29 0 255 54
44 22 29 0 255 23
44 23 28 0 255 24
44 23 29 0 255 24
45 22 28 0 255 55
45 22 29 0 255 55
45 23 28 0 255 55
44 22 30 0 255 23
44 23 30 0 255 24
45 22 31 0 255 55
45 23 30 0 255 55
45 23 31 0 255 55
46 21 28 0 255 86
47 20 28 0 255 118
47 20 29 0 255 118
47 21 28 0 255 119
47 21 29 0 255 119
46 21 30 0 255 86
46 21 31 0 255 86
47 20 30 0 255 119
47 21 30 0 255 119
47 21 31 0 255 119
46 22 29 0 255 86
46 23 29 0 255 87
47 22 28 0 255 119
47 22 29 0 255 119
47 23 29 0 255 120
46 22 30 0 255 86
46 22 31 0 255 87
46 23 30 0 255 87
47 23 30 0 255 120
40 24 29 92 255 0
41 24 28 65 255 0
41 24 29 65 255 0
41 25 29 64 255 0
40 24 30 92 255 0
40 24 31 91 255 0
40 25 30 91 255 0
40 25 31 91 255 0
41 25 30 64 255 0
40 26 30 91 255 0
40 26 31 91 255 0
41 26 30 64 255 0
41 26 31 64 255 0
42 24 28 37 255 0
42 24 29 37 255 0
42 25 29 37 255 0
43 24 28 7 255 0
43 24 29 6 255 0
43 25 29 6 255 0
42 24 31 37 255 0
42 25 30 36 255 0
42 25 31 36 255 0
43 24 30 6 255 0
43 24 31 6 255 0
43 25 30 6 255 0
43 25 31 6 255 0
42 26 31 36 255 0
44 24 28 0 255 24
44 24 29 0 255 24
44 24 30 0 255 24
45 24 31 0 255 56
45 25 31 0 255 56
46 24 30 0 255 87
46 24 31 0 255 87
46 25 31 0 255 88
47 24 30 0 255 120
47 24 31 0 255 120
47 25 31 0 255 121
55 7 12 0 121 255
55 7 13 0 121 255
55 7 14 0 121 255
55 7 15 0 121 255
55 10 7 0 119 255
51 13 13 0 255 250
51 12 15 0 255 249
51 13 14 0 255 250
51 13 15 0 255 250
50 15 13 0 255 216
51 14 12 0 255 250
51 14 13 0 255 250
51 15 13 0 255 251
50 14 14 0 255 216
50 15 14 0 255 216
51 14 14 0 255 250
51 14 15 0 255 251
51 15 14 0 255 251
53 11 10 0 191 255
53 11 11 0 191 255
55 9 8 0 120 255
55 9 9 0 120 255
54 9 11 0 157 255
55 8 10 0 121 255
55 8 11 0 121 255
55 9 10 0 120 255
55 9 11 0 120 255
54 10 9 0 156 255
54 11 8 0 155 255
54 11 9 0 155 255
55 10 8 0 119 255
55 10 9 0 119 255
55 11 8 0 119 255
55 11 9 0 118 255
54 10 10 0 156 255
54 10 11 0 156 255
54 11 10 0 155 255
54 11 11 0 155 255
55 10 10 0 119 255
55 10 11 0 119 255
55 11 10 0 118 255
53 9 15 0 192 255
53 10 12 0 192 255
53 10 13 0 192 255
53 11 12 0 191 255
53 11 13 0 191 255
52 11 14 0 227 255
52 11 15 0 227 255
53 10 14 0 192 255
53 10 15 0 192 255
53 11 14 0 191 255
53 11 15 0 191 255
54 9 12 0 156 255
54 9 13 0 156 255
55 8 12 0 121 255
55 8 13 0 121 255
55 9 12 0 120 255
55 9 13 0 120 255
54 8 14 0 157 255
54 8 15 0 157 255
54 9 14 0 156 255
54 9 15 0 156 255
55 8 14 0 120 255
55 8 15 0 120 255
54 10 12 0 156 255
54 10 13 0 155 255
54 11 12 0 155 255
54 10 14 0 155 255
52 13 11 0 226 255
53 12 10 0 191 255
53 12 11 0 191 255
53 13 11 0 190 255
54 12 9 0 154 255
55 12 9 0 118 255
54 12 10 0 154 255
54 12 11 0 154 255
54 13 11 0 154 255
55 12 10 0 118 255
55 12 11 0 118 255
55 13 11 0 118 255
52 12 12 0 226 255
52 12 13 0 226 255
52 13 12 0 225 255
52 13 13 0 225 255
53 12 12 0 190 255
53 12 13 0 190 255
53 13 12 0 190 255
52 12 14 0 226 255
52 12 15 0 226 255
52 13 14 0 225 255
52 14 12 0 225 255
52 14 13 0 225 255
52 15 13 0 224 255
53 14 12 0 190 255
53 14 13 0 189 255
52 15 14 0 224 255
52 15 15 0 224 255
53 14 14 0 189 255
53 15 14 0 189 255
53 15 15 0 189 255
54 13 12 0 154 255
55 13 12 0 118 255
55 13 13 0 118 255
54 14 12 0 154 255
54 14 13 0 153 255
55 14 13 0 117 255
54 14 14 0 153 255
54 15 14 0 153 255
54 15 15 0 153 255
55 14 14 0 117 255
55 15 14 0 116 255
55 15 15 0 116 255
59 5 3 13 0 255
58 7 3 0 17 255
59 6 2 14 0 255
59 6 3 14 0 255
59 7 3 15 0 255
57 7 6 0 51 255
57 7 7 0 51 255
59 4 5 12 0 255
59 5 4 13 0 255
59 5 5 13 0 255
58 5 7 0 19 255
59 4 6 12 0 255
59 4 7 13 0 255
59 5 6 13 0 255
59 5 7 13 0 255
58 6 4 0 18 255
58 6 5 0 18 255
58 7 4 0 17 255
58 7 5 0 17 255
59 6 4 14 0 255
59 6 5 14 0 255
59 7 4 15 0 255
58 6 6 0 18 255
58 6 7 0 18 255
58 7 6 0 17 255
58 7 7 0 17 255
59 6 6 14 0 255
61 3 1 69 0 255
61 2 3 68 0 255
61 3 2 69 0 255
61 3 3 69 0 255
62 1 3 94 0 255
63 1 3 116 0 255
62 2 1 94 0 255
62 3 0 95 0 255
62 3 1 95 0 255
63 3 1 117 0 255
62 2 2 94 0 255
62 2 3 94 0 255
62 3 2 95 0 255
63 2 2 116 0 255
63 2 3 116 0 255
63 3 2 117 0 255
63 3 3 117 0 255
61 1 5 68 0 255
61 1 6 68 0 255
61 1 7 68 0 255
60 3 4 42 0 255
60 3 5 42 0 255
61 2 4 68 0 255
61 2 5 69 0 255
61 3 4 69 0 255
61 3 5 69 0 255
60 2 7 41 0 255
60 3 6 42 0 255
60 3 7 42 0 255
61 2 6 69 0 255
61 2 7 69 0 255
61 3 6 69 0 255
62 0 4 93 0 255
62 0 5 94 0 255
62 1 4 94 0 255
62 1 5 94 0 255
63 0 4 116 0 255
63 0 5 116 0 255
63 1 4 116 0 255
62 0 6 94 0 255
62 1 6 94 0 255
62 1 7 94 0 255
63 0 6 116 0 255
63 1 6 116 0 255
63 1 7 116 0 255
62 2 4 94 0 255
62 2 5 95 0 255
62 2 7 95 0 255
60 5 1 43 0 255
61 4 0 70 0 255
61 4 1 70 0 255
61 5 0 71 0 255
61 5 1 71 0 255
60 4 2 42 0 255
60 4 3 42 0 255
60 5 2 43 0 255
60 5 3 43 0 255
61 4 2 70 0 255
61 4 3 70 0 255
61 5 2 71 0 255
60 6 2 44 0 255
60 6 3 44 0 255
60 7 3 44 0 255
61 6 2 71 0 255
61 6 3 71 0 255
61 7 3 72 0 255
62 4 0 96 0 255
62 4 1 96 0 255
62 5 0 96 0 255
62 5 1 96 0 255
63 4 1 117 0 255
63 5 1 118 0 255
62 5 2 96 0 255
63 4 2 117 0 255
63 5 2 118 0 255
62 6 2 96 0 255
62 6 3 97 0 255
63 6 2 118 0 255
63 6 3 118 0 255
60 4 4 42 0 255
60 4 5 43 0 255
60 5 4 43 0 255
60 5 5 43 0 255
61 4 4 70 0 255
60 4 6 43 0 255
60 4 7 43 0 255
60 7 4 44 0 255
60 7 5 45 0 255
61 7 4 72 0 255
61 7 5 72 0 255
62 6 4 97 0 255
62 7 4 97 0 255
62 7 5 97 0 255
63 6 4 118 0 255
63 7 4 119 0 255
63 7 5 119 0 255
59 3 8 12 0 255
59 3 9 12 0 255
57 5 10 0 52 255
57 5 11 0 52 255
56 7 9 0 86 255
57 6 8 0 52 255
57 6 9 0 52 255
57 7 8 0 51 255
57 7 9 0 51 255
56 6 11 0 87 255
56 7 10 0 86 255
56 7 11 0 86 255
57 6 10 0 52 255
57 6 11 0 52 255
57 7 10 0 51 255
57 7 11 0 51 255
58 4 9 0 19 255
58 5 8 0 19 255
58 5 9 0 19 255
59 4 8 13 0 255
59 4 9 13 0 255
59 5 8 13 0 255
58 4 10 0 19 255
58 4 11 0 19 255
58 5 10 0 19 255
58 5 11 0 19 255
59 4 10 13 0 255
59 4 11 13 0 255
59 5 11 14 0 255
58 6 8 0 18 255
58 6 9 0 18 255
57 5 12 0 52 255
56 6 12 0 86 255
56 6 13 0 86 255
56 7 12 0 86 255
56 7 13 0 86 255
57 6 12 0 52 255
57 6 13 0 52 255
56 7 14 0 86 255
56 7 15 0 86 255
57 6 14 0 51 255
57 7 14 0 51 255
57 7 15 0 51 255
58 5 12 0 18 255
59 5 12 14 0 255
59 5 13 14 0 255
58 6 12 0 18 255
58 6 13 0 18 255
59 6 13 14 0 255
58 6 14 0 18 255
58 7 14 0 17 255
58 7 15 0 17 255
59 6 14 14 0 255
59 6 15 15 0 255
59 7 14 15 0 255
59 7 15 15 0 255
60 2 8 42 0 255
60 3 8 42 0 255
60 3 9 42 0 255
61 2 8 69 0 255
61 2 9 69 0 255
61 3 8 70 0 255
61 3 9 70 0 255
60 3 10 42 0 255
61 3 10 70 0 255
63 1 8 116 0 255
62 2 8 95 0 255
62 2 9 95 0 255
62 3 9 95 0 255
63 2 8 117 0 255
63 2 9 117 0 255
63 3 9 117 0 255
62 3 10 95 0 255
62 3 11 95 0 255
63 3 10 117 0 255
63 3 11 117 0 255
60 4 10 43 0 255
60 4 11 43 0 255
60 5 11 44 0 255
61 4 10 70 0 255
61 4 11 70 0 255
62 4 11 96 0 255
63 4 11 117 0 255
60 4 12 43 0 255
60 5 12 44 0 255
60 5 13 44 0 255
61 4 12 70 0 255
61 5 12 71 0 255
61 5 13 71 0 255
61 5 14 71 0 255
60 6 13 44 0 255
61 6 13 71 0 255
60 6 14 44 0 255
60 6 15 44 0 255
60 7 15 45 0 255
61 6 14 71 0 255
61 6 15 72 0 255
61 7 15 72 0 255
62 4 12 96 0 255
62 5 12 96 0 255
62 5 13 96 0 255
63 4 12 118 0 255
63 4 13 118 0 255
63 5 12 118 0 255
63 5 13 118 0 255
62 5 14 96 0 255
63 5 14 118 0 255
62 6 14 97 0 255
62 6 15 97 0 255
62 7 15 97 0 255
63 6 14 118 0 255
63 6 15 119 0 255
63 7 15 119 0 255
57 8 5 0 50 255
57 9 5 0 50 255
56 8 7 0 86 255
56 9 6 0 85 255
56 9 7 0 85 255
57 8 6 0 50 255
57 8 7 0 50 255
57 9 6 0 50 255
57 9 7 0 50 255
56 10 7 0 84 255
57 10 7 0 49 255
58 8 4 0 17 255
58 8 5 0 17 255
59 8 4 15 0 255
59 8 5 15 0 255
58 8 6 0 17 255
58 9 6 0 16 255
58 9 7 0 16 255
59 8 6 15 0 255
59 9 6 16 0 255
59 9 7 16 0 255
58 10 7 0 16 255
59 10 7 16 0 255
60 8 5 45 0 255
61 8 5 72 0 255
60 8 6 45 0 255
60 9 6 45 0 255
60 9 7 45 0 255
61 8 6 72 0 255
61 9 6 73 0 255
61 9 7 73 0 255
62 8 5 97 0 255
63 8 5 119 0 255
62 8 6 97 0 255
62 8 7 98 0 255
62 9 7 98 0 255
63 8 6 119 0 255
63 8 7 119 0 255
63 9 7 120 0 255
56 8 8 0 86 255
56 8 9 0 85 255
56 9 8 0 85 255
56 9 9 0 85 255
57 8 8 0 50 255
56 8 10 0 85 255
56 8 11 0 85 255
56 9 10 0 84 255
56 10 8 0 84 255
56 11 8 0 84 255
56 11 9 0 83 255
57 10 8 0 49 255
57 10 9 0 49 255
57 11 8 0 49 255
57 11 9 0 49 255
56 11 10 0 83 255
57 11 10 0 49 255
59 9 8 16 0 255
58 10 8 0 16 255
58 10 9 0 16 255
58 11 9 0 15 255
59 10 8 16 0 255
59 10 9 16 0 255
59 11 9 17 0 255
58 11 10 0 15 255
59 11 10 17 0 255
56 8 12 0 85 255
56 8 15 0 85 255
57 8 15 0 50 255
56 12 10 0 83 255
56 12 11 0 83 255
56 13 11 0 83 255
57 12 10 0 48 255
57 12 11 0 48 255
58 12 10 0 15 255
58 12 11 0 15 255
59 12 10 17 0 255
59 12 11 17 0 255
56 13 12 0 83 255
56 13 13 0 83 255
57 12 12 0 48 255
57 13 12 0 48 255
57 13 13 0 48 255
56 14 13 0 82 255
57 14 13 0 48 255
56 14 14 0 82 255
56 15 14 0 82 255
56 15 15 0 82 255
57 14 14 0 47 255
57 15 14 0 47 255
57 15 15 0 47 255
58 12 12 0 15 255
58 13 12 0 14 255
58 13 13 0 14 255
59 12 12 17 0 255
59 13 12 18 0 255
59 13 13 18 0 255
58 14 13 0 14 255
59 14 13 18 0 255
58 14 14 0 14 255
58 14 15 0 14 255
58 15 15 0 14 255
59 14 14 18 0 255
59 14 15 18 0 255
59 15 15 18 0 255
60 9 8 45 0 255
61 9 8 73 0 255
60 10 8 46 0 255
60 10 9 46 0 255
60 11 9 46 0 255
61 10 8 73 0 255
61 10 9 73 0 255
61 11 9 74 0 255
60 11 10 46 0 255
60 11 11 46 0 255
61 11 10 74 0 255
61 11 11 74 0 255
62 9 8 98 0 255
63 9 8 120 0 255
62 10 8 98 0 255
62 10 9 98 0 255
62 11 9 99 0 255
63 10 8 120 0 255
63 10 9 120 0 255
63 11 9 120 0 255
62 11 10 99 0 255
62 11 11 99 0 255
63 11 10 121 0 255
63 11 11 121 0 255
60 12 11 47 0 255
61 12 11 74 0 255
62 12 11 99 0 255
63 12 11 121 0 255
60 12 12 47 0 255
60 13 12 47 0 255
60 13 13 47 0 255
61 12 12 74 0 255
61 13 12 75 0 255
61 13 13 75 0 255
60 14 13 47 0 255
61 14 13 75 0 255
60 14 14 47 0 255
60 14 15 47 0 255
60 15 15 48 0 255
61 14 14 75 0 255
61 14 15 75 0 255
61 15 15 75 0 255
62 12 12 99 0 255
62 13 12 100 0 255
62 13 13 100 0 255
63 12 12 121 0 255
63 13 12 121 0 255
63 13 13 121 0 255
62 14 13 100 0 255
63 14 13 122 0 255
62 14 14 100 0 255
62 14 15 100 0 255
62 15 15 100 0 255
63 14 14 122 0 255
63 14 15 122 0 255
63 15 15 122 0 255
48 15 19 0 255 148
49 14 18 0 255 182
49 14 19 0 255 182
49 15 18 0 255 182
49 15 19 0 255 182
50 13 17 0 255 215
51 12 16 0 255 249
51 12 17 0 255 249
51 13 16 0 255 250
51 13 17 0 255 250
50 13 18 0 255 215
50 13 19 0 255 215
51 12 18 0 255 250
51 13 18 0 255 250
51 13 19 0 255 250
50 14 17 0 255 216
50 15 17 0 255 216
51 14 16 0 255 251
51 14 17 0 255 251
51 15 16 0 255 251
51 15 17 0 255 251
50 14 18 0 255 216
50 14 19 0 255 216
50 15 18 0 255 216
51 14 19 0 255 251
48 15 20 0 255 149
48 15 21 0 255 149
49 14 20 0 255 182
49 14 21 0 255 182
49 15 20 0 255 182
49 15 21 0 255 182
48 15 22 0 255 149
49 15 22 0 255 183
50 14 20 0 255 216
50 14 21 0 255 216
50 15 21 0 255 216
51 14 20 0 255 251
51 14 21 0 255 251
51 15 20 0 255 252
51 15 21 0 255 252
50 15 22 0 255 217
53 9 16 0 192 255
53 9 17 0 192 255
52 10 16 0 227 255
52 10 17 0 227 255
52 11 16 0 226 255
52 11 17 0 226 255
53 10 16 0 192 255
53 10 17 0 192 255
52 10 18 0 227 255
52 11 18 0 226 255
53 10 18 0 192 255
53 10 19 0 191 255
53 11 19 0 191 255
54 8 16 0 157 255
54 9 16 0 156 255
54 9 17 0 156 255
55 8 16 0 120 255
55 9 16 0 120 255
55 9 17 0 119 255
54 9 18 0 156 255
55 9 18 0 119 255
54 10 18 0 155 255
54 10 19 0 155 255
54 11 19 0 155 255
55 10 18 0 119 255
55 10 19 0 119 255
54 11 20 0 154 255
55 10 20 0 119 255
55 11 20 0 118 255
55 11 21 0 118 255
52 12 16 0 226 255
52 12 17 0 226 255
52 13 16 0 225 255
52 13 17 0 225 255
53 12 17 0 190 255
53 13 16 0 190 255
53 13 17 0 190 255
52 12 18 0 226 255
52 13 18 0 225 255
52 13 19 0 225 255
53 12 18 0 190 255
53 13 18 0 190 255
53 13 19 0 190 255
52 14 16 0 225 255
52 15 16 0 224 255
52 15 17 0 224 255
53 14 16 0 189 255
53 14 17 0 189 255
53 15 16 0 189 255
53 15 17 0 188 255
52 14 19 0 225 255
52 15 18 0 224 255
52 15 19 0 224 255
53 14 18 0 189 255
53 14 19 0 189 255
53 15 18 0 188 255
53 15 19 0 188 255
54 13 17 0 154 255
54 13 18 0 154 255
55 12 19 0 118 255
55 13 18 0 117 255
55 13 19 0 117 255
54 14 17 0 153 255
55 15 16 0 116 255
54 14 19 0 153 255
54 15 19 0 153 255
55 14 18 0 117 255
55 14 19 0 117 255
55 15 19 0 116 255
52 14 20 0 224 255
52 15 20 0 224 255
53 14 21 0 189 255
53 15 20 0 188 255
53 15 21 0 188 255
52 15 22 0 224 255
52 15 23 0 223 255
53 14 22 0 189 255
53 15 22 0 188 255
53 15 23 0 188 255
54 13 20 0 154 255
54 13 21 0 154 255
55 13 20 0 117 255
55 13 21 0 117 255
54 14 20 0 153 255
54 14 21 0 153 255
54 15 20 0 152 255
54 15 21 0 152 255
55 14 21 0 117 255
54 14 22 0 153 255
54 14 23 0 153 255
54 15 23 0 152 255
55 14 22 0 117 255
55 14 23 0 116 255
55 15 22 0 116 255
55 15 23 0 116 255
53 15 24 0 188 255
54 15 24 0 152 255
57 7 16 0 51 255
58 7 16 0 17 255
59 7 16 15 0 255
60 7 16 45 0 255
61 7 16 72 0 255
61 7 17 72 0 255
62 7 16 97 0 255
62 7 17 97 0 255
63 7 16 119 0 255
63 7 17 119 0 255
56 8 16 0 85 255
56 8 17 0 85 255
56 9 17 0 84 255
57 8 16 0 50 255
57 8 17 0 50 255
57 9 17 0 50 255
56 9 18 0 84 255
56 9 19 0 84 255
57 9 18 0 49 255
57 9 19 0 49 255
56 10 18 0 84 255
56 10 19 0 84 255
57 10 19 0 49 255
58 8 16 0 16 255
58 8 17 0 16 255
58 9 17 0 16 255
59 8 16 15 0 255
59 8 17 15 0 255
58 9 18 0 16 255
58 9 19 0 16 255
59 8 18 16 0 255
59 9 18 16 0 255
59 9 19 16 0 255
58 10 19 0 16 255
59 10 19 16 0 255
56 10 20 0 84 255
56 11 20 0 83 255
56 11 21 0 83 255
57 10 20 0 49 255
57 11 20 0 49 255
57 11 21 0 48 255
57 11 22 0 48 255
58 10 20 0 15 255
58 11 20 0 15 255
58 11 21 0 15 255
59 10 20 16 0 255
59 10 21 17 0 255
59 11 21 17 0 255
58 11 22 0 15 255
59 11 22 17 0 255
56 13 19 0 83 255
56 15 16 0 82 255
57 15 16 0 47 255
56 14 18 0 82 255
56 14 19 0 82 255
56 15 18 0 81 255
56 15 19 0 81 255
57 14 19 0 47 255
57 15 18 0 47 255
57 15 19 0 47 255
58 15 16 0 14 255
59 15 16 18 0 255
56 12 20 0 83 255
56 13 20 0 82 255
56 13 21 0 82 255
57 13 20 0 48 255
57 13 21 0 48 255
56 14 21 0 82 255
56 15 20 0 81 255
56 15 21 0 81 255
57 14 20 0 47 255
57 14 21 0 47 255
57 15 20 0 47 255
57 15 21 0 47 255
56 14 22 0 82 255
56 15 22 0 81 255
56 15 23 0 81 255
58 12 22 0 15 255
59 12 22 17 0 255
59 12 23 17 0 255
58 14 20 0 14 255
59 15 21 18 0 255
60 8 16 45 0 255
60 8 17 45 0 255
61 8 16 72 0 255
61 8 17 72 0 255
60 8 18 45 0 255
60 9 18 46 0 255
60 9 19 46 0 255
61 8 18 73 0 255
61 9 18 73 0 255
61 9 19 73 0 255
60 10 19 46 0 255
61 10 19 73 0 255
62 8 17 98 0 255
63 8 17 119 0 255
62 8 18 98 0 255
62 9 18 98 0 255
62 9 19 98 0 255
63 8 18 120 0 255
63 9 18 120 0 255
63 9 19 120 0 255
62 10 19 98 0 255
60 10 20 46 0 255
60 10 21 46 0 255
60 11 21 46 0 255
61 10 20 73 0 255
61 10 21 73 0 255
61 11 21 74 0 255
60 11 22 47 0 255
61 11 22 74 0 255
63 9 20 120 0 255
62 10 20 99 0 255
62 10 21 99 0 255
62 11 21 99 0 255
63 10 20 120 0 255
63 10 21 120 0 255
63 11 21 121 0 255
62 11 22 99 0 255
63 11 22 121 0 255
60 15 16 48 0 255
61 15 16 75 0 255
62 15 16 100 0 255
63 15 16 122 0 255
60 12 22 47 0 255
60 12 23 47 0 255
61 12 22 74 0 255
61 12 23 74 0 255
61 13 23 75 0 255
60 15 20 48 0 255
60 15 21 48 0 255
61 15 21 75 0 255
60 15 22 48 0 255
61 15 22 75 0 255
62 12 22 99 0 255
62 12 23 99 0 255
62 13 23 100 0 255
63 12 22 121 0 255
63 12 23 121 0 255
63 13 23 121 0 255
61 12 24 74 0 255
61 13 24 75 0 255
62 13 24 100 0 255
63 13 24 122 0 255
63 13 25 122 0 255
63 14 25 122 0 255
53 16 15 0 188 255
54 16 15 0 152 255
48 16 19 0 255 149
48 17 19 0 255 149
49 16 18 0 255 183
49 16 19 0 255 183
49 17 19 0 255 183
51 16 17 0 255 252
50 16 18 0 255 217
50 16 19 0 255 217
50 17 19 0 255 217
51 16 18 0 255 252
51 16 19 0 255 252
51 17 19 0 255 252
48 16 20 0 255 149
48 16 21 0 255 149
48 17 20 0 255 149
48 17 21 0 255 150
49 17 20 0 255 183
48 16 22 0 255 149
48 16 23 0 255 149
48 17 23 0 255 150
49 16 22 0 255 183
49 16 23 0 255 183
49 17 23 0 255 183
48 18 20 0 255 150
48 18 21 0 255 150
48 19 21 0 255 150
49 18 20 0 255 183
49 18 21 0 255 183
48 19 22 0 255 150
48 19 23 0 255 150
49 18 22 0 255 184
49 18 23 0 255 184
49 19 22 0 255 184
49 19 23 0 255 184
50 16 21 0 255 217
50 17 20 0 255 217
50 17 21 0 255 217
51 16 20 0 255 252
51 16 21 0 255 252
51 17 20 0 255 252
51 17 21 0 255 253
50 16 22 0 255 217
50 17 22 0 255 217
50 17 23 0 255 217
51 17 23 0 255 253
50 18 20 0 255 218
50 18 21 0 255 218
50 18 22 0 255 218
51 18 23 0 255 253
48 20 23 0 255 151
52 16 18 0 223 255
52 16 19 0 223 255
54 16 16 0 152 255
55 16 16 0 116 255
55 16 19 0 116 255
52 16 20 0 223 255
53 16 21 0 188 255
53 17 21 0 187 255
52 16 22 0 223 255
52 16 23 0 223 255
52 17 22 0 223 255
52 17 23 0 223 255
53 16 22 0 187 255
53 17 22 0 187 255
52 18 22 0 222 255
52 18 23 0 222 255
52 19 23 0 222 255
53 18 22 0 187 255
53 18 23 0 187 255
53 19 23 0 186 255
54 16 20 0 152 255
54 16 21 0 152 255
54 17 21 0 151 255
55 16 20 0 116 255
55 16 21 0 116 255
55 17 21 0 115 255
54 17 22 0 151 255
54 17 23 0 151 255
55 16 22 0 115 255
55 16 23 0 115 255
55 17 22 0 115 255
55 17 23 0 115 255
54 18 22 0 151 255
54 18 23 0 151 255
48 17 24 0 255 150
49 17 24 0 255 183
48 18 24 0 255 150
48 18 25 0 255 150
48 19 24 0 255 150
48 19 25 0 255 151
49 18 24 0 255 184
49 19 24 0 255 184
49 19 25 0 255 184
48 19 27 0 255 151
49 18 26 0 255 184
49 18 27 0 255 184
49 19 26 0 255 184
49 19 27 0 255 184
50 17 24 0 255 217
50 17 25 0 255 218
51 16 24 0 255 252
51 16 25 0 255 252
51 17 24 0 255 253
51 17 25 0 255 253
50 17 26 0 255 218
51 17 26 0 255 253
51 17 27 0 255 253
50 18 24 0 255 218
50 18 25 0 255 218
50 19 24 0 255 219
50 19 25 0 255 219
51 18 24 0 255 253
51 19 24 0 255 254
50 18 26 0 255 218
50 18 27 0 255 218
51 18 26 0 255 253
51 18 27 0 255 253
51 19 27 0 255 254
48 19 28 0 255 151
49 19 28 0 255 185
49 19 29 0 255 185
50 18 28 0 255 218
50 19 28 0 255 219
50 19 29 0 255 219
51 18 28 0 255 253
51 19 28 0 255 254
51 19 29 0 255 254
48 20 24 0 255 151
48 20 25 0 255 151
48 20 27 0 255 151
48 21 27 0 255 151
49 20 26 0 255 185
49 20 27 0 255 185
49 21 26 0 255 185
49 21 27 0 255 185
48 22 27 0 255 152
49 22 27 0 255 186
50 20 25 0 255 219
51 20 24 0 255 254
51 20 25 0 255 254
50 20 26 0 255 219
50 21 26 0 255 219
50 21 27 0 255 219
51 20 26 0 255 254
51 20 27 0 255 254
51 21 26 0 255 255
51 21 27 0 255 255
50 22 27 0 255 220
48 20 28 0 255 151
48 20 29 0 255 151
48 21 28 0 255 152
49 20 29 0 255 185
48 20 30 0 255 151
48 21 30 0 255 152
48 21 31 0 255 152
49 20 30 0 255 185
49 21 30 0 255 185
49 21 31 0 255 185
48 22 28 0 255 152
48 23 28 0 255 152
48 23 29 0 255 152
49 22 28 0 255 186
49 22 29 0 255 186
49 23 28 0 255 186
49 23 29 0 255 186
48 22 31 0 255 152
48 23 30 0 255 153
48 23 31 0 255 153
49 22 30 0 255 186
49 22 31 0 255 186
49 23 30 0 255 186
49 23 31 0 255 186
50 20 29 0 255 219
50 21 28 0 255 219
50 21 29 0 255 220
51 20 28 0 255 254
51 20 29 0 255 254
51 21 28 0 255 255
51 21 29 0 255 255
50 20 30 0 255 219
50 21 30 0 255 220
50 22 28 0 255 220
50 22 29 0 255 220
50 22 30 0 255 220
51 23 30 0 255 255
51 23 31 0 255 255
52 16 24 0 223 255
52 16 25 0 223 255
52 17 25 0 223 255
53 16 24 0 187 255
53 16 25 0 187 255
53 17 25 0 187 255
52 17 26 0 222 255
53 17 26 0 187 255
52 19 24 0 222 255
52 19 25 0 222 255
53 18 24 0 187 255
53 18 25 0 187 255
53 19 24 0 186 255
53 19 25 0 186 255
52 18 26 0 222 255
52 18 27 0 222 255
52 19 26 0 222 255
52 19 27 0 222 255
53 18 26 0 186 255
53 19 26 0 186 255
54 16 24 0 152 255
54 16 25 0 152 255
54 17 24 0 151 255
54 17 25 0 151 255
55 16 24 0 115 255
55 17 24 0 115 255
54 18 24 0 151 255
54 18 25 0 151 255
55 19 25 0 115 255
55 19 26 0 115 255
52 19 28 0 222 255
52 20 24 0 221 255
52 20 25 0 221 255
52 20 26 0 221 255
52 20 27 0 221 255
53 21 27 0 186 255
53 22 27 0 186 255
53 23 27 0 185 255
55 20 25 0 115 255
55 21 25 0 114 255
54 20 26 0 151 255
54 20 27 0 151 255
54 21 26 0 150 255
54 21 27 0 150 255
55 20 26 0 115 255
55 20 27 0 114 255
55 21 26 0 114 255
55 22 25 0 114 255
54 22 26 0 150 255
54 22 27 0 150 255
54 23 26 0 150 255
54 23 27 0 149 255
55 22 26 0 114 255
55 23 26 0 113 255
55 23 27 0 113 255
53 21 28 0 186 255
53 21 29 0 186 255
52 22 29 0 221 255
52 23 28 0 221 255
52 23 29 0 221 255
53 22 28 0 186 255
53 22 29 0 186 255
53 23 28 0 185 255
52 22 30 0 221 255
52 23 30 0 221 255
52 23 31 0 221 255
53 22 30 0 185 255
53 22 31 0 185 255
53 23 31 0 185 255
54 20 28 0 150 255
54 21 28 0 150 255
54 21 29 0 150 255
55 20 28 0 114 255
55 21 28 0 114 255
55 21 29 0 114 255
54 22 29 0 150 255
55 22 29 0 114 255
55 23 28 0 113 255
55 23 29 0 113 255
54 22 30 0 150 255
54 22 31 0 150 255
54 23 30 0 149 255
54 23 31 0 149 255
55 22 30 0 114 255
55 23 30 0 113 255
48 24 30 0 255 153
48 24 31 0 255 153
50 24 31 0 255 220
50 25 31 0 255 220
51 24 30 0 255 255
51 24 31 0 255 255
51 25 30 0 255 255
51 25 31 0 254 255
50 26 31 0 255 221
50 27 31 0 255 221
51 26 30 0 254 255
51 26 31 0 254 255
51 27 31 0 254 255
54 24 27 0 149 255
55 24 27 0 113 255
52 24 29 0 220 255
52 25 29 0 220 255
53 24 28 0 185 255
53 24 29 0 185 255
53 25 29 0 184 255
52 24 30 0 220 255
52 25 30 0 220 255
53 24 31 0 185 255
53 25 30 0 184 255
53 25 31 0 184 255
52 26 30 0 220 255
52 26 31 0 220 255
52 27 31 0 219 255
53 26 30 0 184 255
53 26 31 0 184 255
54 24 28 0 149 255
54 24 29 0 149 255
54 25 29 0 149 255
55 24 28 0 113 255
55 24 29 0 113 255
54 24 30 0 149 255
54 24 31 0 149 255
54 25 30 0 148 255
54 25 31 0 148 255
55 24 30 0 113 255
55 26 31 0 113 255
55 27 31 0 112 255
55 28 31 0 112 255
56 16 16 0 81 255
56 16 17 0 81 255
57 16 16 0 46 255
57 16 17 0 46 255
57 17 17 0 46 255
56 16 19 0 81 255
57 17 18 0 46 255
58 16 16 0 14 255
58 16 17 0 14 255
58 17 17 0 13 255
59 16 16 18 0 255
59 16 17 18 0 255
59 17 17 19 0 255
58 17 18 0 13 255
59 17 18 19 0 255
59 18 18 19 0 255
56 16 20 0 81 255
56 16 21 0 80 255
56 16 22 0 80 255
56 16 23 0 80 255
57 17 23 0 46 255
56 19 23 0 80 255
57 18 22 0 46 255
57 18 23 0 46 255
57 19 22 0 45 255
57 19 23 0 45 255
58 17 21 0 13 255
59 16 20 18 0 255
59 16 21 19 0 255
59 17 20 19 0 255
59 17 21 19 0 255
58 16 22 0 14 255
58 17 22 0 13 255
58 17 23 0 13 255
59 16 22 19 0 255
59 16 23 19 0 255
59 17 23 19 0 255
58 18 21 0 13 255
58 19 21 0 12 255
59 18 20 19 0 255
59 18 21 20 0 255
59 19 21 20 0 255
58 18 22 0 13 255
58 19 22 0 12 255
59 19 22 20 0 255
59 19 23 20 0 255
56 20 23 0 80 255
57 20 23 0 45 255
57 21 23 0 45 255
58 20 22 0 12 255
58 20 23 0 12 255
59 20 22 20 0 255
59 20 23 20 0 255
60 16 16 48 0 255
60 16 17 48 0 255
60 17 17 49 0 255
61 16 16 76 0 255
61 16 17 76 0 255
61 17 17 76 0 255
60 17 18 49 0 255
60 17 19 49 0 255
61 17 18 76 0 255
60 18 18 49 0 255
60 18 19 49 0 255
61 18 18 77 0 255
61 18 19 77 0 255
62 16 16 100 0 255
62 16 17 100 0 255
62 17 17 101 0 255
63 16 16 122 0 255
63 16 17 122 0 255
63 17 17 123 0 255
62 17 18 101 0 255
63 17 18 123 0 255
62 18 18 101 0 255
62 18 19 101 0 255
62 19 19 102 0 255
63 18 18 123 0 255
63 18 19 123 0 255
63 19 19 123 0 255
60 16 20 48 0 255
60 16 21 48 0 255
60 17 20 49 0 255
61 16 20 76 0 255
61 16 21 76 0 255
61 17 20 76 0 255
61 17 21 76 0 255
60 16 22 48 0 255
60 16 23 48 0 255
60 17 23 49 0 255
61 16 22 76 0 255
61 16 23 76 0 255
61 17 22 76 0 255
61 17 23 77 0 255
60 18 20 49 0 255
60 18 21 49 0 255
60 19 21 50 0 255
61 18 20 77 0 255
61 18 21 77 0 255
60 18 22 49 0 255
60 18 23 50 0 255
60 19 22 50 0 255
60 19 23 50 0 255
61 18 22 77 0 255
61 18 23 77 0 255
62 16 21 101 0 255
62 17 20 101 0 255
62 17 21 101 0 255
62 16 22 101 0 255
62 17 22 101 0 255
62 18 21 101 0 255
62 19 20 102 0 255
63 18 21 123 0 255
63 19 20 123 0 255
63 19 21 123 0 255
62 19 23 102 0 255
63 18 22 123 0 255
63 18 23 123 0 255
63 19 22 123 0 255
63 19 23 124 0 255
61 21 23 78 0 255
63 20 20 124 0 255
63 20 21 124 0 255
62 20 22 102 0 255
62 20 23 102 0 255
62 21 22 102 0 255
62 21 23 102 0 255
63 20 22 124 0 255
63 21 22 124 0 255
63 21 23 124 0 255
62 22 23 103 0 255
63 22 23 125 0 255
57 17 24 0 46 255
56 18 24 0 80 255
56 18 25 0 80 255
56 19 24 0 80 255
56 19 25 0 80 255
57 18 24 0 46 255
57 18 25 0 46 255
56 19 26 0 80 255
56 19 27 0 80 255
57 18 26 0 46 255
57 19 26 0 45 255
57 19 27 0 45 255
58 17 24 0 13 255
59 17 24 19 0 255
58 18 24 0 13 255
58 18 25 0 13 255
58 19 25 0 12 255
59 18 24 20 0 255
59 18 25 20 0 255
59 19 24 20 0 255
59 19 25 20 0 255
58 18 26 0 13 255
58 19 26 0 12 255
56 20 24 0 79 255
56 20 25 0 79 255
56 21 24 0 79 255
56 21 25 0 79 255
57 20 24 0 45 255
57 21 24 0 45 255
57 21 25 0 44 255
56 20 27 0 79 255
57 20 27 0 45 255
57 21 26 0 44 255
57 21 27 0 44 255
56 22 25 0 79 255
57 22 25 0 44 255
56 22 26 0 79 255
56 22 27 0 79 255
56 23 26 0 78 255
56 23 27 0 78 255
57 22 26 0 44 255
57 22 27 0 44 255
58 20 24 0 12 255
58 20 25 0 12 255
58 21 24 0 11 255
58 21 25 0 11 255
59 20 24 21 0 255
59 20 25 21 0 255
58 20 26 0 12 255
58 20 27 0 12 255
58 21 26 0 11 255
58 21 27 0 11 255
59 22 26 21 0 255
59 22 27 21 0 255
59 23 26 21 0 255
59 23 27 21 0 255
56 20 28 0 79 255
56 21 28 0 79 255
56 21 29 0 79 255
57 20 28 0 45 255
57 21 28 0 44 255
56 22 28 0 78 255
56 22 29 0 78 255
56 23 28 0 78 255
56 23 29 0 78 255
57 22 28 0 44 255
58 23 28 0 11 255
58 23 29 0 11 255
59 22 28 21 0 255
59 23 28 21 0 255
59 23 29 21 0 255
58 23 30 0 11 255
59 23 30 21 0 255
60 17 24 49 0 255
60 18 24 50 0 255
60 19 24 50 0 255
62 19 24 102 0 255
63 19 24 124 0 255
63 19 25 124 0 255
60 21 25 50 0 255
61 20 24 77 0 255
61 20 25 77 0 255
61 21 24 78 0 255
61 21 25 78 0 255
60 21 26 50 0 255
60 21 27 50 0 255
61 20 26 77 0 255
61 21 26 78 0 255
61 21 27 78 0 255
60 22 25 50 0 255
60 23 25 51 0 255
61 22 24 78 0 255
61 22 25 78 0 255
61 23 24 78 0 255
61 23 25 78 0 255
60 22 26 51 0 255
60 22 27 51 0 255
60 23 26 51 0 255
61 22 27 78 0 255
62 20 24 102 0 255
62 20 25 102 0 255
63 20 25 124 0 255
63 21 25 124 0 255
62 20 26 102 0 255
62 21 26 103 0 255
62 21 27 103 0 255
63 20 26 124 0 255
63 21 26 125 0 255
62 22 24 103 0 255
62 23 24 103 0 255
62 23 25 103 0 255
63 22 24 125 0 255
63 22 25 125 0 255
63 23 24 125 0 255
63 23 25 125 0 255
62 22 27 103 0 255
62 23 26 103 0 255
62 23 27 103 0 255
63 22 26 125 0 255
63 22 27 125 0 255
63 23 26 125 0 255
63 23 27 125 0 255
60 22 28 51 0 255
60 22 29 51 0 255
60 23 28 51 0 255
60 23 29 51 0 255
61 22 28 78 0 255
61 23 28 79 0 255
61 23 29 79 0 255
60 23 30 51 0 255
62 22 28 103 0 255
62 23 28 103 0 255
58 24 27 0 11 255
58 25 27 0 10 255
59 24 26 21 0 255
59 24 27 22 0 255
59 25 27 22 0 255
57 24 29 0 44 255
57 25 28 0 43 255
57 25 29 0 43 255
56 25 30 0 78 255
56 25 31 0 78 255
57 24 30 0 44 255
57 24 31 0 44 255
57 25 30 0 43 255
57 25 31 0 43 255
57 26 28 0 43 255
57 26 29 0 43 255
57 27 29 0 43 255
56 26 30 0 78 255
56 26 31 0 77 255
56 27 30 0 77 255
56 27 31 0 77 255
57 26 30 0 43 255
57 27 30 0 42 255
58 24 28 0 11 255
58 24 29 0 11 255
58 25 28 0 10 255
59 25 28 22 0 255
58 24 30 0 11 255
58 24 31 0 10 255
58 25 31 0 10 255
59 24 30 22 0 255
59 24 31 22 0 255
59 25 30 22 0 255
59 25 31 22 0 255
58 26 28 0 10 255
58 26 29 0 10 255
58 27 29 0 10 255
59 26 28 22 0 255
59 26 29 22 0 255
59 27 29 23 0 255
58 27 30 0 10 255
58 27 31 0 9 255
59 26 30 22 0 255
59 26 31 22 0 255
59 27 30 23 0 255
59 27 31 23 0 255
56 28 31 0 77 255
57 28 30 0 42 255
57 28 31 0 42 255
58 28 30 0 9 255
58 28 31 0 9 255
60 24 25 51 0 255
61 24 25 79 0 255
60 24 26 51 0 255
60 24 27 52 0 255
60 25 26 52 0 255
60 25 27 52 0 255
61 24 26 79 0 255
61 24 27 79 0 255
61 25 27 79 0 255
62 24 25 104 0 255
62 24 26 104 0 255
62 24 27 104 0 255
60 24 29 52 0 255
60 25 28 52 0 255
60 25 29 52 0 255
61 24 28 79 0 255
61 24 29 79 0 255
61 25 28 79 0 255
61 25 29 79 0 255
60 24 30 52 0 255
60 25 30 52 0 255
60 26 28 52 0 255
60 26 29 52 0 255
60 26 30 52 0 255
61 27 31 79 0 255
62 24 28 104 0 255
63 25 29 126 0 255
62 27 29 104 0 255
63 26 28 126 0 255
63 26 29 126 0 255
63 27 28 126 0 255
63 27 29 126 0 255
62 26 30 104 0 255
62 26 31 104 0 255
62 27 30 104 0 255
62 27 31 104 0 255
63 26 30 126 0 255
63 26 31 126 0 255
63 27 31 126 0 255
61 28 30 80 0 255
61 28 31 80 0 255
61 29 30 80 0 255
61 29 31 80 0 255
61 30 31 81 0 255
62 28 29 105 0 255
62 29 29 105 0 255
63 28 28 126 0 255
63 28 29 126 0 255
63 29 29 127 0 255
62 28 30 105 0 255
62 29 30 105 0 255
62 29 31 105 0 255
63 29 30 127 0 255
63 29 31 127 0 255
62 30 30 105 0 255
62 30 31 106 0 255
63 30 30 127 0 255
63 30 31 127 0 255
35 29 35 206 255 0
32 30 39 255 249 0
32 31 38 255 249 0
32 31 39 255 249 0
33 30 38 243 255 0
33 30 39 243 255 0
33 31 38 243 255 0
33 31 39 243 255 0
34 29 37 226 255 0
35 28 36 206 255 0
35 28 37 206 255 0
35 29 36 206 255 0
35 29 37 205 255 0
34 29 38 226 255 0
34 29 39 225 255 0
35 28 38 206 255 0
35 28 39 206 255 0
35 29 38 205 255 0
35 29 39 205 255 0
34 30 37 225 255 0
34 31 37 225 255 0
35 30 36 205 255 0
35 30 37 205 255 0
35 31 37 204 255 0
34 30 38 225 255 0
34 30 39 225 255 0
34 31 38 225 255 0
35 31 38 204 255 0
37 26 33 164 255 0
37 27 33 164 255 0
36 27 34 185 255 0
36 27 35 185 255 0
37 26 34 164 255 0
37 26 35 164 255 0
37 27 34 164 255 0
37 27 35 164 255 0
38 25 32 143 255 0
38 25 33 142 255 0
39 24 32 118 255 0
39 24 33 118 255 0
39 25 32 118 255 0
39 25 33 118 255 0
38 25 34 142 255 0
38 25 35 142 255 0
39 24 34 118 255 0
39 25 34 118 255 0
39 25 35 117 255 0
38 26 32 142 255 0
38 26 33 142 255 0
38 27 32 142 255 0
38 27 33 142 255 0
39 26 32 117 255 0
39 27 32 117 255 0
39 27 33 117 255 0
38 26 34 142 255 0
38 26 35 142 255 0
39 26 35 117 255 0
39 27 35 117 255 0
36 27 36 185 255 0
36 27 37 185 255 0
37 26 36 164 255 0
37 27 36 163 255 0
37 27 37 163 255 0
38 26 36 142 255 0
38 27 36 141 255 0
38 27 37 141 255 0
39 26 36 117 255 0
39 27 36 117 255 0
37 28 33 163 255 0
36 28 34 185 255 0
36 28 35 185 255 0
36 29 35 184 255 0
37 28 34 163 255 0
37 29 34 163 255 0
37 29 35 163 255 0
36 30 35 184 255 0
37 30 35 162 255 0
38 28 33 141 255 0
39 28 33 117 255 0
38 28 34 141 255 0
38 29 34 141 255 0
38 29 35 141 255 0
39 28 34 117 255 0
39 28 35 116 255 0
39 29 35 116 255 0
36 28 36 185 255 0
36 28 37 184 255 0
36 29 36 184 255 0
37 28 37 163 255 0
37 29 37 163 255 0
36 28 38 184 255 0
36 28 39 184 255 0
36 29 38 184 255 0
36 29 39 184 255 0
37 28 38 163 255 0
37 29 38 163 255 0
37 29 39 162 255 0
36 30 36 184 255 0
36 30 37 184 255 0
36 31 37 183 255 0
37 30 36 162 255 0
37 30 37 162 255 0
37 31 37 162 255 0
36 30 38 183 255 0
36 30 39 183 255 0
36 31 38 183 255 0
36 31 39 183 255 0
37 30 38 162 255 0
37 30 39 162 255 0
37 31 38 161 255 0
38 28 36 141 255 0
38 28 37 141 255 0
38 29 36 141 255 0
38 29 37 141 255 0
39 28 36 116 255 0
39 29 36 116 255 0
38 29 39 141 255 0
39 28 38 116 255 0
39 28 39 116 255 0
39 29 38 116 255 0
39 29 39 116 255 0
38 30 36 140 255 0
38 30 37 140 255 0
38 30 39 140 255 0
38 31 39 140 255 0
39 30 38 115 255 0
39 30 39 115 255 0
39 31 39 115 255 0
32 30 40 255 249 0
32 30 41 255 249 0
32 31 40 255 249 0
32 31 41 255 249 0
33 30 40 243 255 0
33 30 41 243 255 0
32 31 42 255 249 0
32 31 43 255 250 0
33 30 42 243 255 0
33 31 42 243 255 0
33 31 43 242 255 0
34 29 40 225 255 0
35 29 40 205 255 0
34 30 40 225 255 0
34 30 41 225 255 0
35 30 40 205 255 0
35 30 41 205 255 0
35 31 40 204 255 0
35 31 41 204 255 0
34 30 42 225 255 0
34 31 42 225 255 0
34 31 43 224 255 0
35 30 42 205 255 0
35 30 43 205 255 0
35 31 43 204 255 0
33 31 44 242 255 0
34 31 44 224 255 0
35 31 44 204 255 0
36 30 40 183 255 0
36 31 40 183 255 0
36 31 41 183 255 0
37 30 40 162 255 0
37 30 41 162 255 0
37 31 40 161 255 0
37 31 41 161 255 0
36 30 42 183 255 0
36 30 43 183 255 0
36 31 42 183 255 0
36 31 43 182 255 0
37 30 42 162 255 0
37 30 43 162 255 0
37 31 42 161 255 0
37 31 43 161 255 0
38 29 40 140 255 0
38 29 41 140 255 0
39 28 40 116 255 0
39 29 40 116 255 0
39 29 41 115 255 0
38 29 42 140 255 0
39 29 42 115 255 0
38 30 40 140 255 0
38 30 41 140 255 0
38 31 40 139 255 0
39 31 40 115 255 0
38 30 42 140 255 0
38 30 43 140 255 0
38 31 43 139 255 0
39 30 42 115 255 0
39 30 43 115 255 0
39 31 42 115 255 0
39 31 43 115 255 0
36 31 44 182 255 0
36 31 45 182 255 0
37 31 44 161 255 0
37 31 45 161 255 0
38 31 44 139 255 0
38 31 45 139 255 0
39 31 44 115 255 0
39 31 45 114 255 0
40 23 32 92 255 0
41 23 32 65 255 0
42 23 32 37 255 0
44 23 32 0 255 24
44 23 33 0 255 24
45 22 32 0 255 55
45 22 33 0 255 55
45 23 32 0 255 55
45 23 33 0 255 56
44 23 34 0 255 24
45 23 34 0 255 56
47 21 32 0 255 119
46 22 32 0 255 87
46 22 33 0 255 87
46 23 33 0 255 87
47 22 32 0 255 120
47 22 33 0 255 120
47 23 33 0 255 120
46 23 34 0 255 87
40 24 32 91 255 0
40 24 33 91 255 0
40 25 33 91 255 0
41 24 32 65 255 0
41 24 33 64 255 0
41 25 33 64 255 0
40 24 34 91 255 0
40 25 34 91 255 0
41 25 34 64 255 0
40 26 32 91 255 0
40 27 32 90 255 0
40 27 33 90 255 0
41 26 32 64 255 0
41 26 33 64 255 0
41 27 32 63 255 0
41 27 33 63 255 0
40 26 34 90 255 0
40 26 35 90 255 0
40 27 34 90 255 0
40 27 35 90 255 0
41 26 34 64 255 0
41 27 35 63 255 0
42 24 32 37 255 0
42 25 32 36 255 0
42 25 33 36 255 0
43 24 33 6 255 0
43 25 33 6 255 0
42 25 34 36 255 0
42 25 35 36 255 0
43 24 34 6 255 0
43 24 35 6 255 0
43 25 34 6 255 0
43 25 35 5 255 0
42 26 32 36 255 0
43 26 33 5 255 0
42 26 34 36 255 0
42 26 35 35 255 0
42 27 34 35 255 0
42 27 35 35 255 0
43 26 34 5 255 0
43 27 34 5 255 0
43 27 35 5 255 0
40 27 37 90 255 0
41 26 36 64 255 0
41 26 37 63 255 0
41 27 36 63 255 0
41 27 37 63 255 0
40 27 38 90 255 0
40 27 39 90 255 0
41 26 38 63 255 0
41 27 38 63 255 0
41 27 39 63 255 0
42 25 36 36 255 0
42 25 37 36 255 0
43 25 36 5 255 0
43 25 37 5 255 0
42 26 36 35 255 0
42 26 37 35 255 0
43 26 37 5 255 0
43 27 37 5 255 0
42 26 38 35 255 0
42 27 38 35 255 0
42 27 39 35 255 0
43 26 38 5 255 0
43 27 38 4 255 0
40 28 34 90 255 0
42 28 35 35 255 0
43 28 35 4 255 0
40 28 37 90 255 0
40 29 37 89 255 0
41 28 36 63 255 0
41 28 37 63 255 0
41 29 36 62 255 0
41 29 37 62 255 0
40 28 38 89 255 0
40 28 39 89 255 0
40 29 38 89 255 0
41 28 39 62 255 0
41 30 37 62 255 0
40 30 38 89 255 0
40 30 39 89 255 0
40 31 39 88 255 0
41 30 38 62 255 0
41 30 39 62 255 0
41 31 39 61 255 0
42 28 36 35 255 0
42 29 36 34 255 0
42 29 37 34 255 0
43 28 36 4 255 0
43 28 37 4 255 0
43 29 36 4 255 0
43 29 37 4 255 0
42 28 39 34 255 0
42 29 38 34 255 0
42 29 39 34 255 0
43 28 38 4 255 0
43 28 39 4 255 0
43 29 38 4 255 0
43 29 39 4 255 0
42 30 37 34 255 0
42 30 38 34 255 0
42 30 39 34 255 0
44 24 32 0 255 25
44 24 33 0 255 25
44 25 32 0 255 25
44 25 33 0 255 25
45 24 32 0 255 56
45 25 32 0 255 56
44 24 34 0 255 25
44 24 35 0 255 25
45 24 34 0 255 56
45 24 35 0 255 56
45 25 35 0 255 56
44 26 32 0 255 25
44 26 33 0 255 25
44 27 33 0 255 26
45 26 32 0 255 56
45 26 33 0 255 57
45 27 33 0 255 57
44 27 34 0 255 26
44 27 35 0 255 26
45 26 34 0 255 57
45 26 35 0 255 57
45 27 34 0 255 57
45 27 35 0 255 57
46 25 32 0 255 88
46 25 33 0 255 88
47 24 32 0 255 120
47 24 33 0 255 120
47 25 32 0 255 121
47 25 33 0 255 121
46 24 34 0 255 87
46 24 35 0 255 88
46 25 34 0 255 88
46 25 35 0 255 88
47 24 34 0 255 120
47 25 34 0 255 121
46 26 32 0 255 88
46 26 33 0 255 88
46 26 34 0 255 88
46 26 35 0 255 88
47 27 35 0 255 121
44 25 36 0 255 25
44 25 37 0 255 25
45 25 36 0 255 56
44 26 36 0 255 25
44 26 37 0 255 26
44 27 36 0 255 26
44 27 37 0 255 26
45 26 36 0 255 57
45 27 36 0 255 57
47 27 36 0 255 121
47 27 37 0 255 121
44 28 35 0 255 26
47 28 35 0 255 121
47 29 35 0 255 122
47 30 35 0 255 122
44 28 36 0 255 26
44 28 37 0 255 26
45 29 37 0 255 57
45 29 38 0 255 57
45 29 39 0 255 58
45 30 37 0 255 58
45 31 37 0 255 58
44 30 38 0 255 26
44 30 39 0 255 26
44 31 38 0 255 27
44 31 39 0 255 27
45 30 38 0 255 58
45 30 39 0 255 58
45 31 38 0 255 58
46 28 36 0 255 88
46 28 37 0 255 89
46 29 36 0 255 89
46 29 37 0 255 89
47 28 36 0 255 121
47 28 37 0 255 121
47 29 36 0 255 122
46 28 38 0 255 89
46 29 38 0 255 89
46 29 39 0 255 89
47 28 38 0 255 121
47 29 38 0 255 122
47 29 39 0 255 122
46 30 36 0 255 89
46 30 37 0 255 89
46 31 36 0 255 90
46 31 37 0 255 90
47 30 36 0 255 122
47 31 36 0 255 122
47 31 37 0 255 122
46 31 38 0 255 90
47 30 39 0 255 122
47 31 38 0 255 122
47 31 39 0 255 123
40 28 40 89 255 0
40 28 41 89 255 0
40 29 41 89 255 0
41 28 40 62 255 0
41 29 40 62 255 0
41 29 41 62 255 0
40 29 42 89 255 0
40 30 41 88 255 0
40 31 40 88 255 0
40 31 41 88 255 0
41 30 40 62 255 0
41 30 41 61 255 0
41 31 40 61 255 0
41 31 41 61 255 0
40 30 42 88 255 0
40 31 42 88 255 0
42 28 40 34 255 0
42 29 40 34 255 0
42 30 40 34 255 0
43 31 40 4 255 0
43 31 41 3 255 0
43 31 42 3 255 0
40 31 44 88 255 0
40 31 45 88 255 0
41 31 45 61 255 0
44 30 40 0 255 27
44 30 41 0 255 27
44 31 40 0 255 27
44 31 41 0 255 27
45 30 40 0 255 58
45 30 41 0 255 58
45 31 41 0 255 58
44 31 42 0 255 27
45 31 42 0 255 58
46 29 40 0 255 89
46 30 40 0 255 89
46 30 41 0 255 89
46 31 40 0 255 90
46 31 41 0 255 90
47 30 40 0 255 122
47 31 40 0 255 123
48 21 32 0 255 152
48 22 32 0 255 152
48 23 32 0 255 153
52 23 32 0 220 255
53 23 32 0 185 255
48 24 32 0 255 153
49 25 32 0 255 186
49 25 33 0 255 186
49 25 34 0 255 187
48 26 33 0 255 153
48 27 33 0 255 153
49 26 32 0 255 187
49 26 33 0 255 187
49 27 32 0 255 187
49 27 33 0 255 187
48 26 34 0 255 153
48 26 35 0 255 153
48 27 34 0 255 154
48 27 35 0 255 154
49 26 34 0 255 187
49 26 35 0 255 187
50 24 32 0 255 220
50 24 33 0 255 220
50 25 32 0 255 220
50 25 33 0 255 221
51 24 32 0 255 255
51 24 33 0 255 255
51 25 33 0 254 255
50 25 34 0 255 221
50 25 35 0 255 221
51 25 34 0 254 255
50 26 32 0 255 221
50 27 32 0 255 221
51 27 32 0 254 255
51 27 33 0 254 255
50 26 34 0 255 221
50 26 35 0 255 221
50 27 35 0 255 222
51 26 34 0 254 255
51 26 35 0 254 255
51 27 34 0 253 255
51 27 35 0 253 255
48 26 36 0 255 153
48 27 36 0 255 154
48 27 37 0 255 154
49 26 36 0 255 187
49 27 36 0 255 187
49 27 37 0 255 187
50 26 36 0 255 221
50 27 36 0 255 222
48 28 33 0 255 154
49 28 33 0 255 187
48 28 34 0 255 154
48 28 35 0 255 154
48 29 34 0 255 154
48 29 35 0 255 154
49 28 34 0 255 188
49 29 34 0 255 188
49 29 35 0 255 188
48 30 35 0 255 155
49 30 35 0 255 188
50 28 32 0 255 222
50 28 33 0 255 222
51 28 33 0 253 255
50 28 34 0 255 222
50 28 35 0 255 222
50 29 34 0 255 222
50 29 35 0 255 222
51 28 34 0 253 255
51 28 35 0 253 255
48 28 37 0 255 154
49 28 36 0 255 188
49 28 37 0 255 188
49 29 36 0 255 188
49 29 37 0 255 188
48 28 38 0 255 154
48 29 38 0 255 155
48 29 39 0 255 155
49 29 38 0 255 188
48 30 36 0 255 155
48 30 37 0 255 155
48 31 36 0 255 155
48 31 37 0 255 155
49 30 36 0 255 188
49 30 37 0 255 189
48 30 38 0 255 155
48 30 39 0 255 155
48 31 38 0 255 155
48 31 39 0 255 156
49 30 38 0 255 189
50 28 36 0 255 222
50 28 37 0 255 222
50 29 36 0 255 222
50 29 37 0 255 223
50 31 37 0 255 223
51 30 36 0 253 255
51 30 37 0 253 255
51 31 36 0 253 255
51 31 37 0 253 255
50 31 38 0 255 223
50 31 39 0 255 223
51 30 38 0 253 255
51 30 39 0 253 255
51 31 38 0 252 255
51 31 39 0 252 255
52 24 32 0 220 255
52 24 33 0 220 255
52 25 33 0 220 255
53 24 32 0 185 255
53 24 33 0 184 255
53 25 32 0 184 255
53 25 33 0 184 255
52 25 34 0 220 255
52 26 32 0 219 255
52 26 33 0 219 255
52 27 32 0 219 255
52 27 33 0 219 255
53 26 32 0 184 255
53 26 33 0 184 255
52 26 34 0 219 255
52 27 34 0 219 255
54 24 32 0 149 255
54 25 32 0 148 255
54 27 32 0 148 255
54 27 33 0 148 255
55 26 32 0 113 255
55 26 33 0 112 255
55 27 32 0 112 255
55 27 33 0 112 255
54 27 34 0 148 255
54 27 35 0 148 255
55 26 34 0 112 255
55 27 34 0 112 255
55 27 35 0 112 255
53 28 33 0 184 255
53 29 33 0 183 255
52 29 35 0 219 255
53 28 34 0 183 255
53 28 35 0 183 255
53 29 34 0 183 255
53 29 35 0 183 255
52 30 35 0 219 255
52 31 35 0 218 255
53 30 34 0 183 255
53 30 35 0 183 255
53 31 34 0 182 255
53 31 35 0 182 255
54 28 32 0 148 255
54 28 33 0 148 255
54 29 32 0 147 255
54 29 33 0 147 255
55 28 32 0 112 255
55 29 32 0 111 255
55 29 33 0 111 255
54 28 34 0 148 255
54 28 35 0 148 255
55 28 35 0 112 255
55 29 35 0 111 255
54 30 33 0 147 255
55 30 33 0 111 255
54 30 34 0 147 255
54 31 34 0 147 255
54 31 35 0 147 255
55 30 34 0 111 255
55 30 35 0 111 255
55 31 34 0 110 255
55 31 35 0 110 255
52 29 36 0 219 255
52 29 37 0 219 255
53 28 36 0 183 255
53 29 36 0 183 255
53 29 37 0 183 255
52 30 36 0 218 255
52 30 37 0 218 255
52 31 36 0 218 255
53 30 37 0 183 255
52 30 38 0 218 255
52 30 39 0 218 255
52 31 39 0 218 255
53 30 38 0 182 255
53 31 38 0 182 255
53 31 39 0 182 255
54 28 36 0 147 255
54 29 36 0 147 255
54 29 37 0 147 255
55 28 36 0 112 255
55 29 36 0 111 255
55 29 37 0 111 255
54 30 37 0 147 255
54 31 36 0 146 255
54 31 37 0 146 255
55 30 36 0 111 255
55 30 37 0 111 255
55 31 36 0 110 255
55 31 37 0 110 255
54 30 38 0 147 255
54 31 38 0 146 255
50 31 40 0 255 223
51 31 40 0 252 255
52 31 40 0 218 255
