ply
format ascii 1.0
element vertex 1195
property float x
property float y
property float z
property uchar red
property uchar green
property uchar blue
end_header
63.000000 71.000000 69.000000 132 0 255
63.000000 71.000000 70.000000 132 0 255
63.000000 71.000000 71.000000 132 0 255
63.000000 74.000000 71.000000 132 0 255
63.000000 74.000000 72.000000 132 0 255
63.000000 74.000000 73.000000 132 0 255
63.000000 74.000000 74.000000 133 0 255
63.000000 74.000000 75.000000 133 0 255
63.000000 75.000000 71.000000 133 0 255
63.000000 75.000000 72.000000 133 0 255
63.000000 75.000000 74.000000 133 0 255
63.000000 75.000000 75.000000 133 0 255
63.000000 75.000000 76.000000 133 0 255
63.000000 76.000000 71.000000 133 0 255
63.000000 76.000000 72.000000 133 0 255
63.000000 76.000000 75.000000 133 0 255
63.000000 76.000000 76.000000 134 0 255
63.000000 77.000000 72.000000 134 0 255
63.000000 77.000000 73.000000 134 0 255
63.000000 77.000000 76.000000 134 0 255
63.000000 77.000000 77.000000 134 0 255
63.000000 78.000000 73.000000 134 0 255
63.000000 78.000000 74.000000 134 0 255
63.000000 78.000000 76.000000 134 0 255
63.000000 78.000000 77.000000 134 0 255
63.000000 79.000000 74.000000 134 0 255
63.000000 79.000000 75.000000 134 0 255
63.000000 79.000000 77.000000 135 0 255
63.000000 79.000000 78.000000 135 0 255
63.000000 80.000000 75.000000 135 0 255
63.000000 80.000000 76.000000 135 0 255
63.000000 80.000000 77.000000 135 0 255
63.000000 80.000000 78.000000 135 0 255
63.000000 81.000000 76.000000 135 0 255
63.000000 81.000000 77.000000 135 0 255
63.000000 81.000000 78.000000 135 0 255
64.000000 27.000000 29.000000 135 0 255
64.000000 27.000000 30.000000 135 0 255
64.000000 27.000000 31.000000 136 0 255
64.000000 28.000000 29.000000 136 0 255
64.000000 28.000000 30.000000 136 0 255
64.000000 28.000000 31.000000 136 0 255
64.000000 28.000000 32.000000 136 0 255
64.000000 28.000000 33.000000 136 0 255
64.000000 29.000000 28.000000 136 0 255
64.000000 29.000000 29.000000 136 0 255
64.000000 29.000000 33.000000 136 0 255
64.000000 29.000000 34.000000 136 0 255
64.000000 29.000000 35.000000 137 0 255
64.000000 30.000000 27.000000 137 0 255
64.000000 30.000000 28.000000 137 0 255
64.000000 30.000000 29.000000 137 0 255
64.000000 30.000000 35.000000 137 0 255
64.000000 30.000000 36.000000 137 0 255
64.000000 31.000000 26.000000 137 0 255
64.000000 31.000000 27.000000 137 0 255
64.000000 31.000000 28.000000 137 0 255
64.000000 31.000000 36.000000 137 0 255
64.000000 31.000000 37.000000 137 0 255
64.000000 31.000000 38.000000 138 0 255
64.000000 32.000000 26.000000 138 0 255
64.000000 32.000000 27.000000 138 0 255
64.000000 32.000000 28.000000 138 0 255
64.000000 32.000000 38.000000 138 0 255
64.000000 32.000000 39.000000 138 0 255
64.000000 33.000000 28.000000 138 0 255
64.000000 33.000000 29.000000 138 0 255
64.000000 33.000000 39.000000 138 0 255
64.000000 33.000000 40.000000 138 0 255
64.000000 33.000000 41.000000 138 0 255
64.000000 34.000000 29.000000 139 0 255
64.000000 34.000000 30.000000 139 0 255
64.000000 34.000000 41.000000 139 0 255
64.000000 34.000000 42.000000 139 0 255
64.000000 35.000000 30.000000 139 0 255
64.000000 35.000000 31.000000 139 0 255
64.000000 35.000000 32.000000 139 0 255
64.000000 35.000000 42.000000 139 0 255
64.000000 35.000000 43.000000 139 0 255
64.000000 36.000000 32.000000 139 0 255
64.000000 36.000000 33.000000 140 0 255
64.000000 36.000000 43.000000 140 0 255
64.000000 36.000000 44.000000 140 0 255
64.000000 36.000000 45.000000 140 0 255
64.000000 37.000000 33.000000 140 0 255
64.000000 37.000000 34.000000 140 0 255
64.000000 37.000000 45.000000 140 0 255
64.000000 37.000000 46.000000 140 0 255
64.000000 38.000000 34.000000 140 0 255
64.000000 38.000000 35.000000 140 0 255
64.000000 38.000000 36.000000 140 0 255
64.000000 38.000000 46.000000 141 0 255
64.000000 38.000000 47.000000 141 0 255
64.000000 39.000000 36.000000 141 0 255
64.000000 39.000000 37.000000 141 0 255
64.000000 39.000000 47.000000 141 0 255
64.000000 39.000000 48.000000 141 0 255
64.000000 40.000000 37.000000 141 0 255
64.000000 40.000000 38.000000 141 0 255
64.000000 40.000000 48.000000 141 0 255
64.000000 40.000000 49.000000 141 0 255
64.000000 40.000000 50.000000 141 0 255
64.000000 41.000000 38.000000 142 0 255
64.000000 41.000000 39.000000 142 0 255
64.000000 41.000000 50.000000 142 0 255
64.000000 42.000000 39.000000 142 0 255
64.000000 42.000000 40.000000 142 0 255
64.000000 42.000000 41.000000 142 0 255
64.000000 43.000000 41.000000 142 0 255
64.000000 43.000000 42.000000 142 0 255
64.000000 44.000000 42.000000 142 0 255
64.000000 44.000000 43.000000 142 0 255
64.000000 45.000000 43.000000 143 0 255
64.000000 45.000000 44.000000 143 0 255
64.000000 45.000000 46.000000 143 0 255
64.000000 45.000000 47.000000 143 0 255
64.000000 45.000000 48.000000 143 0 255
64.000000 46.000000 44.000000 143 0 255
64.000000 46.000000 45.000000 143 0 255
64.000000 46.000000 46.000000 143 0 255
64.000000 46.000000 47.000000 143 0 255
64.000000 46.000000 48.000000 143 0 255
64.000000 46.000000 49.000000 143 0 255
64.000000 47.000000 45.000000 144 0 255
64.000000 47.000000 46.000000 144 0 255
64.000000 47.000000 49.000000 144 0 255
64.000000 47.000000 50.000000 144 0 255
64.000000 48.000000 46.000000 144 0 255
64.000000 48.000000 47.000000 144 0 255
64.000000 48.000000 48.000000 144 0 255
64.000000 48.000000 49.000000 144 0 255
64.000000 48.000000 50.000000 144 0 255
64.000000 49.000000 48.000000 144 0 255
64.000000 49.000000 49.000000 144 0 255
64.000000 49.000000 50.000000 145 0 255
64.000000 51.000000 52.000000 145 0 255
64.000000 51.000000 53.000000 145 0 255
64.000000 52.000000 52.000000 145 0 255
64.000000 52.000000 53.000000 145 0 255
64.000000 52.000000 54.000000 145 0 255
64.000000 52.000000 55.000000 145 0 255
64.000000 53.000000 52.000000 145 0 255
64.000000 53.000000 53.000000 145 0 255
64.000000 53.000000 55.000000 145 0 255
64.000000 53.000000 56.000000 146 0 255
64.000000 54.000000 52.000000 146 0 255
64.000000 54.000000 53.000000 146 0 255
64.000000 54.000000 56.000000 146 0 255
64.000000 54.000000 57.000000 146 0 255
64.000000 55.000000 53.000000 146 0 255
64.000000 55.000000 54.000000 146 0 255
64.000000 55.000000 55.000000 146 0 255
64.000000 55.000000 56.000000 146 0 255
64.000000 55.000000 57.000000 146 0 255
64.000000 56.000000 54.000000 146 0 255
64.000000 56.000000 55.000000 147 0 255
64.000000 56.000000 56.000000 147 0 255
64.000000 56.000000 57.000000 147 0 255
64.000000 58.000000 58.000000 147 0 255
64.000000 58.000000 59.000000 147 0 255
64.000000 58.000000 60.000000 147 0 255
64.000000 59.000000 58.000000 147 0 255
64.000000 59.000000 59.000000 147 0 255
64.000000 59.000000 60.000000 147 0 255
64.000000 59.000000 61.000000 147 0 255
64.000000 59.000000 62.000000 147 0 255
64.000000 60.000000 58.000000 148 0 255
64.000000 60.000000 59.000000 148 0 255
64.000000 60.000000 62.000000 148 0 255
64.000000 60.000000 63.000000 148 0 255
64.000000 61.000000 59.000000 148 0 255
64.000000 61.000000 60.000000 148 0 255
64.000000 61.000000 62.000000 148 0 255
64.000000 61.000000 63.000000 148 0 255
64.000000 62.000000 60.000000 148 0 255
64.000000 62.000000 61.000000 148 0 255
64.000000 62.000000 62.000000 149 0 255
64.000000 62.000000 63.000000 149 0 255
64.000000 62.000000 64.000000 149 0 255
64.000000 63.000000 61.000000 149 0 255
64.000000 63.000000 62.000000 149 0 255
64.000000 63.000000 63.000000 149 0 255
64.000000 65.000000 65.000000 149 0 255
64.000000 65.000000 66.000000 149 0 255
64.000000 65.000000 67.000000 149 0 255
64.000000 66.000000 65.000000 149 0 255
64.000000 66.000000 66.000000 149 0 255
64.000000 66.000000 67.000000 150 0 255
64.000000 66.000000 68.000000 150 0 255
64.000000 67.000000 65.000000 150 0 255
64.000000 67.000000 66.000000 150 0 255
64.000000 67.000000 68.000000 150 0 255
64.000000 67.000000 69.000000 150 0 255
64.000000 67.000000 70.000000 150 0 255
64.000000 68.000000 65.000000 150 0 255
64.000000 68.000000 66.000000 150 0 255
64.000000 68.000000 69.000000 150 0 255
64.000000 68.000000 70.000000 150 0 255
64.000000 69.000000 66.000000 151 0 255
64.000000 69.000000 67.000000 151 0 255
64.000000 69.000000 68.000000 151 0 255
64.000000 69.000000 69.000000 151 0 255
64.000000 69.000000 70.000000 151 0 255
64.000000 70.000000 68.000000 151 0 255
64.000000 70.000000 69.000000 151 0 255
64.000000 70.000000 70.000000 151 0 255
64.000000 73.000000 70.000000 151 0 255
64.000000 73.000000 71.000000 151 0 255
64.000000 73.000000 72.000000 152 0 255
64.000000 74.000000 70.000000 152 0 255
64.000000 74.000000 71.000000 152 0 255
64.000000 74.000000 72.000000 152 0 255
64.000000 74.000000 73.000000 152 0 255
64.000000 74.000000 74.000000 152 0 255
64.000000 75.000000 70.000000 152 0 255
64.000000 75.000000 71.000000 152 0 255
64.000000 75.000000 74.000000 152 0 255
64.000000 75.000000 75.000000 152 0 255
64.000000 76.000000 71.000000 152 0 255
64.000000 76.000000 72.000000 153 0 255
64.000000 76.000000 74.000000 153 0 255
64.000000 76.000000 75.000000 153 0 255
64.000000 76.000000 76.000000 153 0 255
64.000000 77.000000 72.000000 153 0 255
64.000000 77.000000 73.000000 153 0 255
64.000000 77.000000 74.000000 153 0 255
64.000000 77.000000 75.000000 153 0 255
64.000000 77.000000 76.000000 153 0 255
64.000000 78.000000 73.000000 153 0 255
64.000000 78.000000 74.000000 153 0 255
64.000000 78.000000 75.000000 154 0 255
64.000000 78.000000 76.000000 154 0 255
64.000000 79.000000 74.000000 154 0 255
64.000000 79.000000 75.000000 154 0 255
64.000000 79.000000 76.000000 154 0 255
64.000000 79.000000 77.000000 154 0 255
64.000000 80.000000 75.000000 154 0 255
64.000000 80.000000 76.000000 154 0 255
64.000000 80.000000 77.000000 154 0 255
65.000000 27.000000 30.000000 154 0 255
65.000000 27.000000 31.000000 155 0 255
65.000000 27.000000 32.000000 155 0 255
65.000000 28.000000 29.000000 155 0 255
65.000000 28.000000 30.000000 155 0 255
65.000000 28.000000 31.000000 155 0 255
65.000000 28.000000 32.000000 155 0 255
65.000000 28.000000 33.000000 155 0 255
65.000000 29.000000 29.000000 155 0 255
65.000000 29.000000 30.000000 155 0 255
65.000000 29.000000 33.000000 155 0 255
65.000000 29.000000 34.000000 155 0 255
65.000000 29.000000 35.000000 156 0 255
65.000000 30.000000 28.000000 156 0 255
65.000000 30.000000 29.000000 156 0 255
65.000000 30.000000 35.000000 156 0 255
65.000000 30.000000 36.000000 156 0 255
65.000000 31.000000 27.000000 156 0 255
65.000000 31.000000 28.000000 156 0 255
65.000000 31.000000 36.000000 156 0 255
65.000000 31.000000 37.000000 156 0 255
65.000000 31.000000 38.000000 156 0 255
65.000000 32.000000 27.000000 156 0 255
65.000000 32.000000 28.000000 157 0 255
65.000000 32.000000 38.000000 157 0 255
65.000000 32.000000 39.000000 157 0 255
65.000000 33.000000 28.000000 157 0 255
65.000000 33.000000 29.000000 157 0 255
65.000000 33.000000 39.000000 157 0 255
65.000000 33.000000 40.000000 157 0 255
65.000000 33.000000 41.000000 157 0 255
65.000000 34.000000 29.000000 157 0 255
65.000000 34.000000 30.000000 157 0 255
65.000000 34.000000 31.000000 158 0 255
65.000000 34.000000 41.000000 158 0 255
65.000000 34.000000 42.000000 158 0 255
65.000000 35.000000 31.000000 158 0 255
65.000000 35.000000 32.000000 158 0 255
65.000000 35.000000 42.000000 158 0 255
65.000000 35.000000 43.000000 158 0 255
65.000000 36.000000 32.000000 158 0 255
65.000000 36.000000 33.000000 158 0 255
65.000000 36.000000 43.000000 158 0 255
65.000000 36.000000 44.000000 158 0 255
65.000000 36.000000 45.000000 159 0 255
65.000000 37.000000 33.000000 159 0 255
65.000000 37.000000 34.000000 159 0 255
65.000000 37.000000 45.000000 159 0 255
65.000000 37.000000 46.000000 159 0 255
65.000000 38.000000 34.000000 159 0 255
65.000000 38.000000 35.000000 159 0 255
65.000000 38.000000 36.000000 159 0 255
65.000000 38.000000 46.000000 159 0 255
65.000000 38.000000 47.000000 159 0 255
65.000000 39.000000 36.000000 159 0 255
65.000000 39.000000 37.000000 160 0 255
65.000000 39.000000 47.000000 160 0 255
65.000000 39.000000 48.000000 160 0 255
65.000000 40.000000 37.000000 160 0 255
65.000000 40.000000 38.000000 160 0 255
65.000000 40.000000 48.000000 160 0 255
65.000000 40.000000 49.000000 160 0 255
65.000000 41.000000 38.000000 160 0 255
65.000000 41.000000 39.000000 160 0 255
65.000000 41.000000 49.000000 160 0 255
65.000000 41.000000 50.000000 161 0 255
65.000000 41.000000 51.000000 161 0 255
65.000000 42.000000 39.000000 161 0 255
65.000000 42.000000 40.000000 161 0 255
65.000000 42.000000 50.000000 161 0 255
65.000000 42.000000 51.000000 161 0 255
65.000000 43.000000 41.000000 161 0 255
65.000000 43.000000 42.000000 161 0 255
65.000000 44.000000 42.000000 161 0 255
65.000000 44.000000 43.000000 161 0 255
65.000000 45.000000 43.000000 161 0 255
65.000000 45.000000 44.000000 162 0 255
65.000000 45.000000 47.000000 162 0 255
65.000000 45.000000 48.000000 162 0 255
65.000000 46.000000 44.000000 162 0 255
65.000000 46.000000 45.000000 162 0 255
65.000000 46.000000 46.000000 162 0 255
65.000000 46.000000 47.000000 162 0 255
65.000000 46.000000 48.000000 162 0 255
65.000000 46.000000 49.000000 162 0 255
65.000000 47.000000 45.000000 162 0 255
65.000000 47.000000 46.000000 162 0 255
65.000000 47.000000 47.000000 163 0 255
65.000000 47.000000 48.000000 163 0 255
65.000000 47.000000 49.000000 163 0 255
65.000000 48.000000 46.000000 163 0 255
65.000000 48.000000 47.000000 163 0 255
65.000000 48.000000 48.000000 163 0 255
65.000000 48.000000 49.000000 163 0 255
65.000000 50.000000 51.000000 163 0 255
65.000000 50.000000 52.000000 163 0 255
65.000000 51.000000 50.000000 163 0 255
65.000000 51.000000 51.000000 164 0 255
65.000000 51.000000 52.000000 164 0 255
65.000000 51.000000 53.000000 164 0 255
65.000000 51.000000 54.000000 164 0 255
65.000000 52.000000 50.000000 164 0 255
65.000000 52.000000 51.000000 164 0 255
65.000000 52.000000 52.000000 164 0 255
65.000000 52.000000 54.000000 164 0 255
65.000000 52.000000 55.000000 164 0 255
65.000000 53.000000 51.000000 164 0 255
65.000000 53.000000 52.000000 164 0 255
65.000000 53.000000 55.000000 165 0 255
65.000000 53.000000 56.000000 165 0 255
65.000000 54.000000 52.000000 165 0 255
65.000000 54.000000 53.000000 165 0 255
65.000000 54.000000 54.000000 165 0 255
65.000000 54.000000 55.000000 165 0 255
65.000000 54.000000 56.000000 165 0 255
65.000000 55.000000 53.000000 165 0 255
65.000000 55.000000 54.000000 165 0 255
65.000000 55.000000 55.000000 165 0 255
65.000000 55.000000 56.000000 165 0 255
65.000000 57.000000 57.000000 166 0 255
65.000000 57.000000 58.000000 166 0 255
65.000000 57.000000 59.000000 166 0 255
65.000000 58.000000 57.000000 166 0 255
65.000000 58.000000 58.000000 166 0 255
65.000000 58.000000 59.000000 166 0 255
65.000000 58.000000 60.000000 166 0 255
65.000000 59.000000 57.000000 166 0 255
65.000000 59.000000 58.000000 166 0 255
65.000000 59.000000 60.000000 166 0 255
65.000000 59.000000 61.000000 167 0 255
65.000000 60.000000 57.000000 167 0 255
65.000000 60.000000 58.000000 167 0 255
65.000000 60.000000 61.000000 167 0 255
65.000000 60.000000 62.000000 167 0 255
65.000000 61.000000 58.000000 167 0 255
65.000000 61.000000 59.000000 167 0 255
65.000000 61.000000 60.000000 167 0 255
65.000000 61.000000 61.000000 167 0 255
65.000000 61.000000 62.000000 167 0 255
65.000000 62.000000 60.000000 167 0 255
65.000000 62.000000 61.000000 168 0 255
65.000000 62.000000 62.000000 168 0 255
65.000000 64.000000 64.000000 168 0 255
65.000000 64.000000 65.000000 168 0 255
65.000000 65.000000 63.000000 168 0 255
65.000000 65.000000 64.000000 168 0 255
65.000000 65.000000 65.000000 168 0 255
65.000000 65.000000 66.000000 168 0 255
65.000000 65.000000 67.000000 168 0 255
65.000000 66.000000 63.000000 168 0 255
65.000000 66.000000 64.000000 168 0 255
65.000000 66.000000 65.000000 169 0 255
65.000000 66.000000 67.000000 169 0 255
65.000000 66.000000 68.000000 169 0 255
65.000000 67.000000 64.000000 169 0 255
65.000000 67.000000 65.000000 169 0 255
65.000000 67.000000 68.000000 169 0 255
65.000000 67.000000 69.000000 169 0 255
65.000000 68.000000 65.000000 169 0 255
65.000000 68.000000 66.000000 169 0 255
65.000000 68.000000 67.000000 169 0 255
65.000000 68.000000 68.000000 170 0 255
65.000000 68.000000 69.000000 170 0 255
65.000000 69.000000 66.000000 170 0 255
65.000000 69.000000 67.000000 170 0 255
65.000000 69.000000 68.000000 170 0 255
65.000000 69.000000 69.000000 170 0 255
65.000000 72.000000 68.000000 170 0 255
65.000000 72.000000 69.000000 170 0 255
65.000000 72.000000 70.000000 170 0 255
65.000000 72.000000 71.000000 170 0 255
65.000000 73.000000 68.000000 170 0 255
65.000000 73.000000 69.000000 171 0 255
65.000000 73.000000 70.000000 171 0 255
65.000000 73.000000 71.000000 171 0 255
65.000000 73.000000 72.000000 171 0 255
65.000000 73.000000 73.000000 171 0 255
65.000000 74.000000 69.000000 171 0 255
65.000000 74.000000 70.000000 171 0 255
65.000000 74.000000 73.000000 171 0 255
65.000000 74.000000 74.000000 171 0 255
65.000000 75.000000 69.000000 171 0 255
65.000000 75.000000 70.000000 171 0 255
65.000000 75.000000 71.000000 172 0 255
65.000000 75.000000 73.000000 172 0 255
65.000000 75.000000 74.000000 172 0 255
65.000000 76.000000 71.000000 172 0 255
65.000000 76.000000 72.000000 172 0 255
65.000000 76.000000 73.000000 172 0 255
65.000000 76.000000 74.000000 172 0 255
65.000000 77.000000 72.000000 172 0 255
65.000000 77.000000 73.000000 172 0 255
65.000000 77.000000 74.000000 172 0 255
65.000000 77.000000 75.000000 173 0 255
65.000000 78.000000 74.000000 173 0 255
65.000000 78.000000 75.000000 173 0 255
65.000000 78.000000 76.000000 173 0 255
65.000000 79.000000 73.000000 173 0 255
65.000000 79.000000 74.000000 173 0 255
65.000000 79.000000 75.000000 173 0 255
66.000000 27.000000 31.000000 173 0 255
66.000000 27.000000 32.000000 173 0 255
66.000000 28.000000 30.000000 173 0 255
66.000000 28.000000 31.000000 173 0 255
66.000000 28.000000 32.000000 174 0 255
66.000000 28.000000 33.000000 174 0 255
66.000000 28.000000 34.000000 174 0 255
66.000000 29.000000 29.000000 174 0 255
66.000000 29.000000 30.000000 174 0 255
66.000000 29.000000 31.000000 174 0 255
66.000000 29.000000 34.000000 174 0 255
66.000000 29.000000 35.000000 174 0 255
66.000000 30.000000 29.000000 174 0 255
66.000000 30.000000 30.000000 174 0 255
66.000000 30.000000 35.000000 174 0 255
66.000000 30.000000 36.000000 175 0 255
66.000000 30.000000 37.000000 175 0 255
66.000000 31.000000 28.000000 175 0 255
66.000000 31.000000 29.000000 175 0 255
66.000000 31.000000 37.000000 175 0 255
66.000000 31.000000 38.000000 175 0 255
66.000000 32.000000 27.000000 175 0 255
66.000000 32.000000 28.000000 175 0 255
66.000000 32.000000 29.000000 175 0 255
66.000000 32.000000 38.000000 175 0 255
66.000000 32.000000 39.000000 176 0 255
66.000000 33.000000 28.000000 176 0 255
66.000000 33.000000 29.000000 176 0 255
66.000000 33.000000 39.000000 176 0 255
66.000000 33.000000 40.000000 176 0 255
66.000000 33.000000 41.000000 176 0 255
66.000000 34.000000 29.000000 176 0 255
66.000000 34.000000 30.000000 176 0 255
66.000000 34.000000 31.000000 176 0 255
66.000000 34.000000 41.000000 176 0 255
66.000000 34.000000 42.000000 176 0 255
66.000000 35.000000 31.000000 177 0 255
66.000000 35.000000 32.000000 177 0 255
66.000000 35.000000 42.000000 177 0 255
66.000000 35.000000 43.000000 177 0 255
66.000000 36.000000 32.000000 177 0 255
66.000000 36.000000 33.000000 177 0 255
66.000000 36.000000 43.000000 177 0 255
66.000000 36.000000 44.000000 177 0 255
66.000000 36.000000 45.000000 177 0 255
66.000000 37.000000 33.000000 177 0 255
66.000000 37.000000 34.000000 177 0 255
66.000000 37.000000 45.000000 178 0 255
66.000000 37.000000 46.000000 178 0 255
66.000000 38.000000 35.000000 178 0 255
66.000000 38.000000 36.000000 178 0 255
66.000000 38.000000 46.000000 178 0 255
66.000000 38.000000 47.000000 178 0 255
66.000000 39.000000 36.000000 178 0 255
66.000000 39.000000 37.000000 178 0 255
66.000000 39.000000 47.000000 178 0 255
66.000000 39.000000 48.000000 178 0 255
66.000000 40.000000 37.000000 179 0 255
66.000000 40.000000 38.000000 179 0 255
66.000000 40.000000 48.000000 179 0 255
66.000000 40.000000 49.000000 179 0 255
66.000000 41.000000 38.000000 179 0 255
66.000000 41.000000 39.000000 179 0 255
66.000000 41.000000 49.000000 179 0 255
66.000000 41.000000 50.000000 179 0 255
66.000000 42.000000 39.000000 179 0 255
66.000000 42.000000 40.000000 179 0 255
66.000000 42.000000 50.000000 179 0 255
66.000000 42.000000 51.000000 180 0 255
66.000000 43.000000 40.000000 180 0 255
66.000000 43.000000 41.000000 180 0 255
66.000000 43.000000 42.000000 180 0 255
66.000000 44.000000 41.000000 180 0 255
66.000000 44.000000 42.000000 180 0 255
66.000000 44.000000 43.000000 180 0 255
66.000000 45.000000 43.000000 180 0 255
66.000000 45.000000 44.000000 180 0 255
66.000000 46.000000 44.000000 180 0 255
66.000000 46.000000 45.000000 180 0 255
66.000000 46.000000 47.000000 181 0 255
66.000000 46.000000 48.000000 181 0 255
66.000000 47.000000 45.000000 181 0 255
66.000000 47.000000 46.000000 181 0 255
66.000000 47.000000 47.000000 181 0 255
66.000000 47.000000 48.000000 181 0 255
66.000000 48.000000 46.000000 181 0 255
66.000000 49.000000 50.000000 181 0 255
66.000000 50.000000 49.000000 181 0 255
66.000000 50.000000 50.000000 181 0 255
66.000000 50.000000 51.000000 182 0 255
66.000000 50.000000 52.000000 182 0 255
66.000000 51.000000 49.000000 182 0 255
66.000000 51.000000 50.000000 182 0 255
66.000000 51.000000 52.000000 182 0 255
66.000000 51.000000 53.000000 182 0 255
66.000000 51.000000 54.000000 182 0 255
66.000000 52.000000 50.000000 182 0 255
66.000000 52.000000 51.000000 182 0 255
66.000000 52.000000 53.000000 182 0 255
66.000000 52.000000 54.000000 182 0 255
66.000000 53.000000 50.000000 183 0 255
66.000000 53.000000 51.000000 183 0 255
66.000000 53.000000 52.000000 183 0 255
66.000000 53.000000 53.000000 183 0 255
66.000000 53.000000 54.000000 183 0 255
66.000000 53.000000 55.000000 183 0 255
66.000000 54.000000 52.000000 183 0 255
66.000000 54.000000 53.000000 183 0 255
66.000000 54.000000 54.000000 183 0 255
66.000000 54.000000 55.000000 183 0 255
66.000000 56.000000 56.000000 183 0 255
66.000000 56.000000 57.000000 184 0 255
66.000000 56.000000 58.000000 184 0 255
66.000000 57.000000 55.000000 184 0 255
66.000000 57.000000 56.000000 184 0 255
66.000000 57.000000 57.000000 184 0 255
66.000000 57.000000 58.000000 184 0 255
66.000000 57.000000 59.000000 184 0 255
66.000000 58.000000 56.000000 184 0 255
66.000000 58.000000 57.000000 184 0 255
66.000000 58.000000 59.000000 184 0 255
66.000000 58.000000 60.000000 185 0 255
66.000000 59.000000 56.000000 185 0 255
66.000000 59.000000 57.000000 185 0 255
66.000000 59.000000 60.000000 185 0 255
66.000000 59.000000 61.000000 185 0 255
66.000000 60.000000 57.000000 185 0 255
66.000000 60.000000 58.000000 185 0 255
66.000000 60.000000 59.000000 185 0 255
66.000000 60.000000 60.000000 185 0 255
66.000000 60.000000 61.000000 185 0 255
66.000000 61.000000 58.000000 185 0 255
66.000000 61.000000 59.000000 186 0 255
66.000000 61.000000 60.000000 186 0 255
66.000000 61.000000 61.000000 186 0 255
66.000000 63.000000 63.000000 186 0 255
66.000000 63.000000 64.000000 186 0 255
66.000000 64.000000 62.000000 186 0 255
66.000000 64.000000 63.000000 186 0 255
66.000000 64.000000 64.000000 186 0 255
66.000000 64.000000 65.000000 186 0 255
66.000000 64.000000 66.000000 186 0 255
66.000000 65.000000 62.000000 186 0 255
66.000000 65.000000 63.000000 187 0 255
66.000000 65.000000 66.000000 187 0 255
66.000000 65.000000 67.000000 187 0 255
66.000000 66.000000 63.000000 187 0 255
66.000000 66.000000 64.000000 187 0 255
66.000000 66.000000 67.000000 187 0 255
66.000000 66.000000 68.000000 187 0 255
66.000000 67.000000 64.000000 187 0 255
66.000000 67.000000 65.000000 187 0 255
66.000000 67.000000 66.000000 187 0 255
66.000000 67.000000 67.000000 188 0 255
66.000000 67.000000 68.000000 188 0 255
66.000000 68.000000 65.000000 188 0 255
66.000000 68.000000 66.000000 188 0 255
66.000000 68.000000 67.000000 188 0 255
66.000000 68.000000 68.000000 188 0 255
66.000000 71.000000 67.000000 188 0 255
66.000000 71.000000 68.000000 188 0 255
66.000000 71.000000 69.000000 188 0 255
66.000000 71.000000 70.000000 188 0 255
66.000000 72.000000 67.000000 188 0 255
66.000000 72.000000 68.000000 189 0 255
66.000000 72.000000 69.000000 189 0 255
66.000000 72.000000 70.000000 189 0 255
66.000000 72.000000 71.000000 189 0 255
66.000000 73.000000 67.000000 189 0 255
66.000000 73.000000 68.000000 189 0 255
66.000000 73.000000 71.000000 189 0 255
66.000000 73.000000 72.000000 189 0 255
66.000000 74.000000 68.000000 189 0 255
66.000000 74.000000 69.000000 189 0 255
66.000000 74.000000 72.000000 189 0 255
66.000000 74.000000 73.000000 190 0 255
66.000000 75.000000 69.000000 190 0 255
66.000000 75.000000 70.000000 190 0 255
66.000000 75.000000 71.000000 190 0 255
66.000000 75.000000 72.000000 190 0 255
66.000000 75.000000 73.000000 190 0 255
66.000000 76.000000 71.000000 190 0 255
66.000000 76.000000 72.000000 190 0 255
67.000000 27.000000 32.000000 190 0 255
67.000000 28.000000 31.000000 190 0 255
67.000000 28.000000 32.000000 191 0 255
67.000000 28.000000 33.000000 191 0 255
67.000000 28.000000 34.000000 191 0 255
67.000000 29.000000 30.000000 191 0 255
67.000000 29.000000 31.000000 191 0 255
67.000000 29.000000 32.000000 191 0 255
67.000000 29.000000 34.000000 191 0 255
67.000000 29.000000 35.000000 191 0 255
67.000000 30.000000 29.000000 191 0 255
67.000000 30.000000 30.000000 191 0 255
67.000000 30.000000 31.000000 191 0 255
67.000000 30.000000 35.000000 192 0 255
67.000000 30.000000 36.000000 192 0 255
67.000000 30.000000 37.000000 192 0 255
67.000000 31.000000 29.000000 192 0 255
67.000000 31.000000 30.000000 192 0 255
67.000000 31.000000 37.000000 192 0 255
67.000000 31.000000 38.000000 192 0 255
67.000000 32.000000 28.000000 192 0 255
67.000000 32.000000 29.000000 192 0 255
67.000000 32.000000 38.000000 192 0 255
67.000000 32.000000 39.000000 192 0 255
67.000000 33.000000 28.000000 193 0 255
67.000000 33.000000 29.000000 193 0 255
67.000000 33.000000 39.000000 193 0 255
67.000000 33.000000 40.000000 193 0 255
67.000000 33.000000 41.000000 193 0 255
67.000000 34.000000 29.000000 193 0 255
67.000000 34.000000 30.000000 193 0 255
67.000000 34.000000 31.000000 193 0 255
67.000000 34.000000 41.000000 193 0 255
67.000000 34.000000 42.000000 193 0 255
67.000000 35.000000 31.000000 194 0 255
67.000000 35.000000 32.000000 194 0 255
67.000000 35.000000 42.000000 194 0 255
67.000000 35.000000 43.000000 194 0 255
67.000000 36.000000 32.000000 194 0 255
67.000000 36.000000 33.000000 194 0 255
67.000000 36.000000 43.000000 194 0 255
67.000000 36.000000 44.000000 194 0 255
67.000000 37.000000 33.000000 194 0 255
67.000000 37.000000 34.000000 194 0 255
67.000000 37.000000 44.000000 194 0 255
67.000000 37.000000 45.000000 195 0 255
67.000000 37.000000 46.000000 195 0 255
67.000000 38.000000 34.000000 195 0 255
67.000000 38.000000 35.000000 195 0 255
67.000000 38.000000 36.000000 195 0 255
67.000000 38.000000 46.000000 195 0 255
67.000000 38.000000 47.000000 195 0 255
67.000000 39.000000 36.000000 195 0 255
67.000000 39.000000 37.000000 195 0 255
67.000000 39.000000 47.000000 195 0 255
67.000000 39.000000 48.000000 195 0 255
67.000000 40.000000 37.000000 196 0 255
67.000000 40.000000 38.000000 196 0 255
67.000000 40.000000 48.000000 196 0 255
67.000000 40.000000 49.000000 196 0 255
67.000000 41.000000 38.000000 196 0 255
67.000000 41.000000 39.000000 196 0 255
67.000000 41.000000 49.000000 196 0 255
67.000000 41.000000 50.000000 196 0 255
67.000000 42.000000 39.000000 196 0 255
67.000000 42.000000 40.000000 196 0 255
67.000000 42.000000 50.000000 197 0 255
67.000000 42.000000 51.000000 197 0 255
67.000000 43.000000 40.000000 197 0 255
67.000000 43.000000 41.000000 197 0 255
67.000000 43.000000 51.000000 197 0 255
67.000000 44.000000 41.000000 197 0 255
67.000000 44.000000 42.000000 197 0 255
67.000000 44.000000 43.000000 197 0 255
67.000000 45.000000 42.000000 197 0 255
67.000000 45.000000 43.000000 197 0 255
67.000000 45.000000 44.000000 197 0 255
67.000000 46.000000 43.000000 198 0 255
67.000000 46.000000 44.000000 198 0 255
67.000000 46.000000 45.000000 198 0 255
67.000000 47.000000 44.000000 198 0 255
67.000000 47.000000 45.000000 198 0 255
67.000000 47.000000 46.000000 198 0 255
67.000000 48.000000 45.000000 198 0 255
67.000000 48.000000 46.000000 198 0 255
67.000000 49.000000 46.000000 198 0 255
67.000000 49.000000 47.000000 198 0 255
67.000000 49.000000 48.000000 198 0 255
67.000000 49.000000 49.000000 199 0 255
67.000000 49.000000 50.000000 199 0 255
67.000000 49.000000 51.000000 199 0 255
67.000000 50.000000 48.000000 199 0 255
67.000000 50.000000 49.000000 199 0 255
67.000000 50.000000 51.000000 199 0 255
67.000000 50.000000 52.000000 199 0 255
67.000000 51.000000 48.000000 199 0 255
67.000000 51.000000 49.000000 199 0 255
67.000000 51.000000 52.000000 199 0 255
67.000000 51.000000 53.000000 200 0 255
67.000000 52.000000 49.000000 200 0 255
67.000000 52.000000 50.000000 200 0 255
67.000000 52.000000 51.000000 200 0 255
67.000000 52.000000 52.000000 200 0 255
67.000000 52.000000 53.000000 200 0 255
67.000000 52.000000 54.000000 200 0 255
67.000000 53.000000 50.000000 200 0 255
67.000000 53.000000 51.000000 200 0 255
67.000000 53.000000 52.000000 200 0 255
67.000000 53.000000 53.000000 200 0 255
67.000000 53.000000 54.000000 201 0 255
67.000000 55.000000 55.000000 201 0 255
67.000000 55.000000 56.000000 201 0 255
67.000000 56.000000 54.000000 201 0 255
67.000000 56.000000 55.000000 201 0 255
67.000000 56.000000 56.000000 201 0 255
67.000000 56.000000 57.000000 201 0 255
67.000000 56.000000 58.000000 201 0 255
67.000000 57.000000 54.000000 201 0 255
67.000000 57.000000 55.000000 201 0 255
67.000000 57.000000 58.000000 201 0 255
67.000000 57.000000 59.000000 202 0 255
67.000000 58.000000 55.000000 202 0 255
67.000000 58.000000 56.000000 202 0 255
67.000000 58.000000 59.000000 202 0 255
67.000000 58.000000 60.000000 202 0 255
67.000000 59.000000 56.000000 202 0 255
67.000000 59.000000 57.000000 202 0 255
67.000000 59.000000 58.000000 202 0 255
67.000000 59.000000 59.000000 202 0 255
67.000000 59.000000 60.000000 202 0 255
67.000000 60.000000 57.000000 203 0 255
67.000000 60.000000 58.000000 203 0 255
67.000000 60.000000 59.000000 203 0 255
67.000000 60.000000 60.000000 203 0 255
67.000000 62.000000 61.000000 203 0 255
67.000000 62.000000 62.000000 203 0 255
67.000000 62.000000 63.000000 203 0 255
67.000000 63.000000 61.000000 203 0 255
67.000000 63.000000 62.000000 203 0 255
67.000000 63.000000 63.000000 203 0 255
67.000000 63.000000 64.000000 203 0 255
67.000000 64.000000 61.000000 204 0 255
67.000000 64.000000 62.000000 204 0 255
67.000000 64.000000 64.000000 204 0 255
67.000000 64.000000 65.000000 204 0 255
67.000000 64.000000 66.000000 204 0 255
67.000000 65.000000 61.000000 204 0 255
67.000000 65.000000 62.000000 204 0 255
67.000000 65.000000 65.000000 204 0 255
67.000000 65.000000 66.000000 204 0 255
67.000000 66.000000 62.000000 204 0 255
67.000000 66.000000 63.000000 204 0 255
67.000000 66.000000 64.000000 205 0 255
67.000000 66.000000 65.000000 205 0 255
67.000000 66.000000 66.000000 205 0 255
67.000000 66.000000 67.000000 205 0 255
67.000000 67.000000 64.000000 205 0 255
67.000000 67.000000 65.000000 205 0 255
67.000000 67.000000 66.000000 205 0 255
67.000000 67.000000 67.000000 205 0 255
67.000000 70.000000 66.000000 205 0 255
67.000000 70.000000 67.000000 205 0 255
67.000000 70.000000 68.000000 206 0 255
67.000000 70.000000 69.000000 206 0 255
67.000000 71.000000 66.000000 206 0 255
67.000000 71.000000 67.000000 206 0 255
67.000000 71.000000 68.000000 206 0 255
67.000000 71.000000 69.000000 206 0 255
67.000000 71.000000 70.000000 206 0 255
67.000000 72.000000 66.000000 206 0 255
67.000000 72.000000 67.000000 206 0 255
67.000000 72.000000 70.000000 206 0 255
67.000000 72.000000 71.000000 206 0 255
67.000000 73.000000 67.000000 207 0 255
67.000000 73.000000 68.000000 207 0 255
67.000000 73.000000 70.000000 207 0 255
67.000000 73.000000 71.000000 207 0 255
67.000000 73.000000 72.000000 207 0 255
67.000000 74.000000 68.000000 207 0 255
67.000000 74.000000 69.000000 207 0 255
67.000000 74.000000 70.000000 207 0 255
67.000000 74.000000 71.000000 207 0 255
67.000000 74.000000 72.000000 207 0 255
67.000000 75.000000 70.000000 207 0 255
67.000000 75.000000 71.000000 208 0 255
68.000000 28.000000 32.000000 208 0 255
68.000000 28.000000 33.000000 208 0 255
68.000000 28.000000 34.000000 208 0 255
68.000000 29.000000 31.000000 208 0 255
68.000000 29.000000 32.000000 208 0 255
68.000000 29.000000 34.000000 208 0 255
68.000000 29.000000 35.000000 208 0 255
68.000000 30.000000 30.000000 208 0 255
68.000000 30.000000 31.000000 208 0 255
68.000000 30.000000 32.000000 209 0 255
68.000000 30.000000 35.000000 209 0 255
68.000000 30.000000 36.000000 209 0 255
68.000000 30.000000 37.000000 209 0 255
68.000000 31.000000 29.000000 209 0 255
68.000000 31.000000 30.000000 209 0 255
68.000000 31.000000 31.000000 209 0 255
68.000000 31.000000 37.000000 209 0 255
68.000000 31.000000 38.000000 209 0 255
68.000000 32.000000 29.000000 209 0 255
68.000000 32.000000 30.000000 209 0 255
68.000000 32.000000 38.000000 210 0 255
68.000000 32.000000 39.000000 210 0 255
68.000000 33.000000 28.000000 210 0 255
68.000000 33.000000 29.000000 210 0 255
68.000000 33.000000 40.000000 210 0 255
68.000000 33.000000 41.000000 210 0 255
68.000000 34.000000 29.000000 210 0 255
68.000000 34.000000 30.000000 210 0 255
68.000000 34.000000 31.000000 210 0 255
68.000000 34.000000 41.000000 210 0 255
68.000000 34.000000 42.000000 210 0 255
68.000000 35.000000 31.000000 211 0 255
68.000000 35.000000 32.000000 211 0 255
68.000000 35.000000 42.000000 211 0 255
68.000000 35.000000 43.000000 211 0 255
68.000000 36.000000 32.000000 211 0 255
68.000000 36.000000 33.000000 211 0 255
68.000000 36.000000 43.000000 211 0 255
68.000000 36.000000 44.000000 211 0 255
68.000000 37.000000 33.000000 211 0 255
68.000000 37.000000 34.000000 211 0 255
68.000000 37.000000 44.000000 212 0 255
68.000000 37.000000 45.000000 212 0 255
68.000000 37.000000 46.000000 212 0 255
68.000000 38.000000 34.000000 212 0 255
68.000000 38.000000 35.000000 212 0 255
68.000000 38.000000 36.000000 212 0 255
68.000000 38.000000 46.000000 212 0 255
68.000000 38.000000 47.000000 212 0 255
68.000000 39.000000 36.000000 212 0 255
68.000000 39.000000 37.000000 212 0 255
68.000000 39.000000 47.000000 212 0 255
68.000000 39.000000 48.000000 213 0 255
68.000000 40.000000 37.000000 213 0 255
68.000000 40.000000 38.000000 213 0 255
68.000000 40.000000 48.000000 213 0 255
68.000000 40.000000 49.000000 213 0 255
68.000000 41.000000 38.000000 213 0 255
68.000000 41.000000 39.000000 213 0 255
68.000000 41.000000 49.000000 213 0 255
68.000000 41.000000 50.000000 213 0 255
68.000000 42.000000 39.000000 213 0 255
68.000000 42.000000 40.000000 213 0 255
68.000000 42.000000 50.000000 214 0 255
68.000000 42.000000 51.000000 214 0 255
68.000000 43.000000 40.000000 214 0 255
68.000000 43.000000 41.000000 214 0 255
68.000000 43.000000 51.000000 214 0 255
68.000000 43.000000 52.000000 214 0 255
68.000000 44.000000 41.000000 214 0 255
68.000000 44.000000 42.000000 214 0 255
68.000000 45.000000 42.000000 214 0 255
68.000000 45.000000 43.000000 214 0 255
68.000000 46.000000 43.000000 215 0 255
68.000000 46.000000 44.000000 215 0 255
68.000000 47.000000 44.000000 215 0 255
68.000000 47.000000 45.000000 215 0 255
68.000000 48.000000 45.000000 215 0 255
68.000000 48.000000 46.000000 215 0 255
68.000000 48.000000 47.000000 215 0 255
68.000000 48.000000 48.000000 215 0 255
68.000000 48.000000 49.000000 215 0 255
68.000000 48.000000 50.000000 215 0 255
68.000000 49.000000 46.000000 215 0 255
68.000000 49.000000 47.000000 216 0 255
68.000000 49.000000 48.000000 216 0 255
68.000000 49.000000 49.000000 216 0 255
68.000000 49.000000 50.000000 216 0 255
68.000000 49.000000 51.000000 216 0 255
68.000000 50.000000 47.000000 216 0 255
68.000000 50.000000 48.000000 216 0 255
68.000000 50.000000 51.000000 216 0 255
68.000000 50.000000 52.000000 216 0 255
68.000000 51.000000 48.000000 216 0 255
68.000000 51.000000 49.000000 216 0 255
68.000000 51.000000 51.000000 217 0 255
68.000000 51.000000 52.000000 217 0 255
68.000000 52.000000 49.000000 217 0 255
68.000000 52.000000 50.000000 217 0 255
68.000000 52.000000 51.000000 217 0 255
68.000000 52.000000 52.000000 217 0 255
68.000000 53.000000 52.000000 217 0 255
68.000000 54.000000 53.000000 217 0 255
68.000000 54.000000 54.000000 217 0 255
68.000000 54.000000 55.000000 217 0 255
68.000000 55.000000 53.000000 218 0 255
68.000000 55.000000 54.000000 218 0 255
68.000000 55.000000 55.000000 218 0 255
68.000000 55.000000 56.000000 218 0 255
68.000000 55.000000 57.000000 218 0 255
68.000000 56.000000 53.000000 218 0 255
68.000000 56.000000 54.000000 218 0 255
68.000000 56.000000 57.000000 218 0 255
68.000000 56.000000 58.000000 218 0 255
68.000000 57.000000 54.000000 218 0 255
68.000000 57.000000 55.000000 218 0 255
68.000000 57.000000 57.000000 219 0 255
68.000000 57.000000 58.000000 219 0 255
68.000000 58.000000 54.000000 219 0 255
68.000000 58.000000 55.000000 219 0 255
68.000000 58.000000 56.000000 219 0 255
68.000000 58.000000 57.000000 219 0 255
68.000000 58.000000 58.000000 219 0 255
68.000000 58.000000 59.000000 219 0 255
68.000000 59.000000 56.000000 219 0 255
68.000000 59.000000 57.000000 219 0 255
68.000000 59.000000 58.000000 219 0 255
68.000000 59.000000 59.000000 220 0 255
68.000000 61.000000 60.000000 220 0 255
68.000000 61.000000 61.000000 220 0 255
68.000000 61.000000 62.000000 220 0 255
68.000000 62.000000 60.000000 220 0 255
68.000000 62.000000 61.000000 220 0 255
68.000000 62.000000 62.000000 220 0 255
68.000000 62.000000 63.000000 220 0 255
68.000000 63.000000 60.000000 220 0 255
68.000000 63.000000 61.000000 220 0 255
68.000000 63.000000 63.000000 221 0 255
68.000000 63.000000 64.000000 221 0 255
68.000000 64.000000 60.000000 221 0 255
68.000000 64.000000 61.000000 221 0 255
68.000000 64.000000 64.000000 221 0 255
68.000000 64.000000 65.000000 221 0 255
68.000000 65.000000 61.000000 221 0 255
68.000000 65.000000 62.000000 221 0 255
68.000000 65.000000 63.000000 221 0 255
68.000000 65.000000 64.000000 221 0 255
68.000000 65.000000 65.000000 221 0 255
68.000000 66.000000 62.000000 222 0 255
68.000000 66.000000 63.000000 222 0 255
68.000000 66.000000 64.000000 222 0 255
68.000000 66.000000 65.000000 222 0 255
68.000000 69.000000 65.000000 222 0 255
68.000000 69.000000 66.000000 222 0 255
68.000000 69.000000 67.000000 222 0 255
68.000000 70.000000 65.000000 222 0 255
68.000000 70.000000 66.000000 222 0 255
68.000000 70.000000 67.000000 222 0 255
68.000000 70.000000 68.000000 222 0 255
68.000000 70.000000 69.000000 223 0 255
68.000000 71.000000 65.000000 223 0 255
68.000000 71.000000 66.000000 223 0 255
68.000000 71.000000 69.000000 223 0 255
68.000000 71.000000 70.000000 223 0 255
68.000000 72.000000 66.000000 223 0 255
68.000000 72.000000 67.000000 223 0 255
68.000000 72.000000 69.000000 223 0 255
68.000000 72.000000 70.000000 223 0 255
68.000000 73.000000 67.000000 223 0 255
68.000000 73.000000 68.000000 224 0 255
68.000000 73.000000 69.000000 224 0 255
68.000000 73.000000 70.000000 224 0 255
68.000000 74.000000 68.000000 224 0 255
68.000000 74.000000 69.000000 224 0 255
68.000000 74.000000 70.000000 224 0 255
69.000000 28.000000 33.000000 224 0 255
69.000000 28.000000 34.000000 224 0 255
69.000000 29.000000 32.000000 224 0 255
69.000000 29.000000 33.000000 224 0 255
69.000000 29.000000 34.000000 224 0 255
69.000000 29.000000 35.000000 225 0 255
69.000000 29.000000 36.000000 225 0 255
69.000000 30.000000 31.000000 225 0 255
69.000000 30.000000 32.000000 225 0 255
69.000000 30.000000 36.000000 225 0 255
69.000000 30.000000 37.000000 225 0 255
69.000000 31.000000 30.000000 225 0 255
69.000000 31.000000 31.000000 225 0 255
69.000000 31.000000 32.000000 225 0 255
69.000000 31.000000 37.000000 225 0 255
69.000000 31.000000 38.000000 225 0 255
69.000000 32.000000 29.000000 226 0 255
69.000000 32.000000 30.000000 226 0 255
69.000000 32.000000 31.000000 226 0 255
69.000000 32.000000 38.000000 226 0 255
69.000000 32.000000 39.000000 226 0 255
69.000000 33.000000 29.000000 226 0 255
69.000000 33.000000 30.000000 226 0 255
69.000000 33.000000 39.000000 226 0 255
69.000000 33.000000 40.000000 226 0 255
69.000000 33.000000 41.000000 226 0 255
69.000000 34.000000 29.000000 227 0 255
69.000000 34.000000 30.000000 227 0 255
69.000000 34.000000 31.000000 227 0 255
69.000000 34.000000 41.000000 227 0 255
69.000000 34.000000 42.000000 227 0 255
69.000000 35.000000 31.000000 227 0 255
69.000000 35.000000 32.000000 227 0 255
69.000000 35.000000 42.000000 227 0 255
69.000000 35.000000 43.000000 227 0 255
69.000000 36.000000 32.000000 227 0 255
69.000000 36.000000 33.000000 227 0 255
69.000000 36.000000 43.000000 228 0 255
69.000000 36.000000 44.000000 228 0 255
69.000000 37.000000 33.000000 228 0 255
69.000000 37.000000 34.000000 228 0 255
69.000000 37.000000 44.000000 228 0 255
69.000000 37.000000 45.000000 228 0 255
69.000000 38.000000 34.000000 228 0 255
69.000000 38.000000 35.000000 228 0 255
69.000000 38.000000 45.000000 228 0 255
69.000000 38.000000 46.000000 228 0 255
69.000000 38.000000 47.000000 228 0 255
69.000000 39.000000 35.000000 229 0 255
69.000000 39.000000 36.000000 229 0 255
69.000000 39.000000 37.000000 229 0 255
69.000000 39.000000 46.000000 229 0 255
69.000000 39.000000 47.000000 229 0 255
69.000000 39.000000 48.000000 229 0 255
69.000000 40.000000 37.000000 229 0 255
69.000000 40.000000 38.000000 229 0 255
69.000000 40.000000 48.000000 229 0 255
69.000000 40.000000 49.000000 229 0 255
69.000000 41.000000 38.000000 230 0 255
69.000000 41.000000 39.000000 230 0 255
69.000000 41.000000 49.000000 230 0 255
69.000000 41.000000 50.000000 230 0 255
69.000000 42.000000 39.000000 230 0 255
69.000000 42.000000 40.000000 230 0 255
69.000000 42.000000 50.000000 230 0 255
69.000000 42.000000 51.000000 230 0 255
69.000000 43.000000 40.000000 230 0 255
69.000000 43.000000 41.000000 230 0 255
69.000000 43.000000 51.000000 230 0 255
69.000000 43.000000 52.000000 231 0 255
69.000000 44.000000 41.000000 231 0 255
69.000000 44.000000 42.000000 231 0 255
69.000000 44.000000 52.000000 231 0 255
69.000000 45.000000 42.000000 231 0 255
69.000000 45.000000 43.000000 231 0 255
69.000000 46.000000 43.000000 231 0 255
69.000000 46.000000 44.000000 231 0 255
69.000000 47.000000 44.000000 231 0 255
69.000000 47.000000 45.000000 231 0 255
69.000000 48.000000 45.000000 231 0 255
69.000000 48.000000 46.000000 232 0 255
69.000000 48.000000 48.000000 232 0 255
69.000000 48.000000 49.000000 232 0 255
69.000000 48.000000 50.000000 232 0 255
69.000000 49.000000 46.000000 232 0 255
69.000000 49.000000 47.000000 232 0 255
69.000000 49.000000 48.000000 232 0 255
69.000000 49.000000 50.000000 232 0 255
69.000000 49.000000 51.000000 232 0 255
69.000000 50.000000 47.000000 232 0 255
69.000000 50.000000 48.000000 233 0 255
69.000000 50.000000 50.000000 233 0 255
69.000000 50.000000 51.000000 233 0 255
69.000000 51.000000 48.000000 233 0 255
69.000000 51.000000 49.000000 233 0 255
69.000000 51.000000 50.000000 233 0 255
69.000000 51.000000 51.000000 233 0 255
69.000000 53.000000 52.000000 233 0 255
69.000000 53.000000 53.000000 233 0 255
69.000000 53.000000 54.000000 233 0 255
69.000000 54.000000 52.000000 233 0 255
69.000000 54.000000 53.000000 234 0 255
69.000000 54.000000 54.000000 234 0 255
69.000000 54.000000 55.000000 234 0 255
69.000000 55.000000 52.000000 234 0 255
69.000000 55.000000 53.000000 234 0 255
69.000000 55.000000 55.000000 234 0 255
69.000000 55.000000 56.000000 234 0 255
69.000000 55.000000 57.000000 234 0 255
69.000000 56.000000 52.000000 234 0 255
69.000000 56.000000 53.000000 234 0 255
69.000000 56.000000 56.000000 234 0 255
69.000000 56.000000 57.000000 235 0 255
69.000000 57.000000 53.000000 235 0 255
69.000000 57.000000 54.000000 235 0 255
69.000000 57.000000 55.000000 235 0 255
69.000000 57.000000 56.000000 235 0 255
69.000000 57.000000 57.000000 235 0 255
69.000000 58.000000 55.000000 235 0 255
69.000000 58.000000 56.000000 235 0 255
69.000000 58.000000 57.000000 235 0 255
69.000000 60.000000 59.000000 235 0 255
69.000000 60.000000 60.000000 236 0 255
69.000000 61.000000 58.000000 236 0 255
69.000000 61.000000 59.000000 236 0 255
69.000000 61.000000 60.000000 236 0 255
69.000000 61.000000 61.000000 236 0 255
69.000000 61.000000 62.000000 236 0 255
69.000000 62.000000 58.000000 236 0 255
69.000000 62.000000 59.000000 236 0 255
69.000000 62.000000 60.000000 236 0 255
69.000000 62.000000 62.000000 236 0 255
69.000000 62.000000 63.000000 236 0 255
69.000000 63.000000 59.000000 237 0 255
69.000000 63.000000 60.000000 237 0 255
69.000000 63.000000 63.000000 237 0 255
69.000000 63.000000 64.000000 237 0 255
69.000000 64.000000 60.000000 237 0 255
69.000000 64.000000 61.000000 237 0 255
69.000000 64.000000 62.000000 237 0 255
69.000000 64.000000 63.000000 237 0 255
69.000000 64.000000 64.000000 237 0 255
69.000000 65.000000 61.000000 237 0 255
69.000000 65.000000 62.000000 237 0 255
69.000000 65.000000 63.000000 238 0 255
69.000000 65.000000 64.000000 238 0 255
69.000000 68.000000 63.000000 238 0 255
69.000000 68.000000 64.000000 238 0 255
69.000000 68.000000 65.000000 238 0 255
69.000000 68.000000 66.000000 238 0 255
69.000000 69.000000 63.000000 238 0 255
69.000000 69.000000 64.000000 238 0 255
69.000000 69.000000 65.000000 238 0 255
69.000000 69.000000 66.000000 238 0 255
69.000000 69.000000 67.000000 239 0 255
69.000000 69.000000 68.000000 239 0 255
69.000000 70.000000 64.000000 239 0 255
69.000000 70.000000 65.000000 239 0 255
69.000000 70.000000 68.000000 239 0 255
69.000000 70.000000 69.000000 239 0 255
69.000000 71.000000 64.000000 239 0 255
69.000000 71.000000 65.000000 239 0 255
69.000000 71.000000 66.000000 239 0 255
69.000000 71.000000 68.000000 239 0 255
69.000000 71.000000 69.000000 239 0 255
69.000000 72.000000 66.000000 240 0 255
69.000000 72.000000 67.000000 240 0 255
69.000000 72.000000 68.000000 240 0 255
69.000000 72.000000 69.000000 240 0 255
69.000000 73.000000 67.000000 240 0 255
69.000000 73.000000 68.000000 240 0 255
69.000000 73.000000 69.000000 240 0 255
70.000000 28.000000 33.000000 240 0 255
70.000000 28.000000 34.000000 240 0 255
70.000000 29.000000 33.000000 240 0 255
70.000000 29.000000 34.000000 240 0 255
70.000000 29.000000 35.000000 241 0 255
70.000000 29.000000 36.000000 241 0 255
70.000000 30.000000 32.000000 241 0 255
70.000000 30.000000 33.000000 241 0 255
70.000000 30.000000 36.000000 241 0 255
70.000000 30.000000 37.000000 241 0 255
70.000000 31.000000 31.000000 241 0 255
70.000000 31.000000 32.000000 241 0 255
70.000000 31.000000 37.000000 241 0 255
70.000000 31.000000 38.000000 241 0 255
70.000000 32.000000 30.000000 242 0 255
70.000000 32.000000 31.000000 242 0 255
70.000000 32.000000 32.000000 242 0 255
70.000000 32.000000 38.000000 242 0 255
70.000000 32.000000 39.000000 242 0 255
70.000000 33.000000 30.000000 242 0 255
70.000000 33.000000 31.000000 242 0 255
70.000000 33.000000 39.000000 242 0 255
70.000000 33.000000 40.000000 242 0 255
70.000000 33.000000 41.000000 242 0 255
70.000000 34.000000 30.000000 242 0 255
70.000000 34.000000 31.000000 243 0 255
70.000000 34.000000 41.000000 243 0 255
70.000000 34.000000 42.000000 243 0 255
70.000000 35.000000 31.000000 243 0 255
70.000000 35.000000 32.000000 243 0 255
70.000000 35.000000 42.000000 243 0 255
70.000000 35.000000 43.000000 243 0 255
70.000000 36.000000 32.000000 243 0 255
70.000000 36.000000 33.000000 243 0 255
70.000000 36.000000 43.000000 243 0 255
70.000000 36.000000 44.000000 243 0 255
70.000000 37.000000 33.000000 244 0 255
70.000000 37.000000 34.000000 244 0 255
70.000000 37.000000 44.000000 244 0 255
70.000000 37.000000 45.000000 244 0 255
70.000000 38.000000 34.000000 244 0 255
